//X,Y,Z,R,G,B,NumberOfReturns,ReturnNumber,GpsTime,Intensity,Classification
97
-6.86324999,-8.12850001,-1.32775002,161,145,64,1.000000,1.000000,139.059904,46202.000000,2.000000
-6.88775000,-8.09749999,-1.35425001,90,81,31,1.000000,1.000000,229.742075,65535.000000,2.000000
-6.88125000,-8.11500000,-1.33925002,193,202,209,1.000000,1.000000,229.885904,56032.000000,2.000000
-6.87950000,-8.11650001,-1.33349996,225,232,236,1.000000,1.000000,229.906443,48277.000000,2.000000
-6.88399997,-8.11950000,-1.32974999,228,233,236,1.000000,1.000000,229.906443,44957.000000,2.000000
-6.87875000,-8.11950000,-1.33275002,220,227,233,2.000000,1.000000,229.926996,42422.000000,2.000000
-6.88049999,-8.11724999,-1.33100002,229,234,237,1.000000,1.000000,229.906443,46355.000000,2.000000
-6.88549999,-8.12400000,-1.32725006,213,223,232,2.000000,1.000000,229.926981,28857.000000,2.000000
-6.87850002,-8.12275000,-1.32775002,213,223,232,2.000000,1.000000,229.947535,20534.000000,2.000000
-6.88250002,-8.11850001,-1.32600003,222,229,235,1.000000,1.000000,229.906427,43690.000000,2.000000
-6.88374999,-8.11650001,-1.32600003,223,231,237,1.000000,1.000000,229.885889,45393.000000,2.000000
-6.88399997,-8.11950000,-1.32400005,216,226,236,2.000000,1.000000,229.906427,37070.000000,2.000000
-6.88425002,-8.11700000,-1.32349997,216,226,238,2.000000,1.000000,229.885874,41287.000000,2.000000
-6.88000003,-8.11650001,-1.31925004,210,222,235,2.000000,1.000000,229.906427,22150.000000,2.000000
-6.87875000,-8.11300000,-1.30975001,207,220,230,2.000000,1.000000,229.885874,29949.000000,2.000000
-6.88049999,-8.11424999,-1.30750006,207,219,227,2.000000,1.000000,229.885858,42838.000000,2.000000
-6.87974998,-8.11375000,-1.30425005,196,207,207,2.000000,1.000000,229.885858,44716.000000,2.000000
-6.88000003,-8.11050000,-1.30925005,212,221,231,1.000000,1.000000,229.865320,42160.000000,2.000000
-6.87149999,-8.12975000,-1.34324997,211,222,235,2.000000,1.000000,230.029764,48342.000000,2.000000
-6.87125000,-8.12975000,-1.34024995,213,224,237,2.000000,1.000000,230.029749,40129.000000,2.000000
-6.86375001,-8.13100000,-1.34324997,217,226,226,2.000000,1.000000,230.070856,26781.000000,2.000000
-6.86800000,-8.13050001,-1.33849996,213,225,237,2.000000,1.000000,230.050302,28857.000000,2.000000
-6.86349997,-8.13074999,-1.34024995,212,221,228,2.000000,1.000000,230.070856,24946.000000,2.000000
-6.86324999,-8.13050001,-1.33725005,209,220,225,2.000000,1.000000,230.070856,17476.000000,2.000000
-6.86099997,-8.13175001,-1.34324997,213,222,216,2.000000,1.000000,230.091410,22107.000000,2.000000
-6.86074999,-8.13150000,-1.34024995,207,217,217,2.000000,1.000000,230.091410,18568.000000,2.000000
-6.86074999,-8.13125001,-1.33725005,199,210,209,2.000000,1.000000,230.091410,15247.000000,2.000000
-6.87300000,-8.12174999,-1.34575003,218,225,233,1.000000,1.000000,229.968119,65535.000000,2.000000
-6.86875001,-8.12775000,-1.34750002,218,221,221,2.000000,1.000000,230.029764,50046.000000,2.000000
-6.86399999,-8.12775000,-1.34524994,224,229,227,2.000000,1.000000,230.050318,43602.000000,2.000000
-6.87324998,-8.12824999,-1.34299999,202,215,230,2.000000,1.000000,230.009211,49697.000000,2.000000
-6.87175003,-8.12725001,-1.33950000,205,217,231,2.000000,1.000000,230.009211,40304.000000,2.000000
-6.87350002,-8.12200000,-1.34024995,209,219,229,1.000000,1.000000,229.968103,47775.000000,2.000000
-6.87050000,-8.12325000,-1.33849996,207,218,228,2.000000,1.000000,229.988657,43864.000000,2.000000
-6.87350002,-8.12200000,-1.33725005,211,221,233,2.000000,1.000000,229.968103,42051.000000,2.000000
-6.87224999,-8.11825000,-1.34199994,220,229,237,1.000000,1.000000,229.947565,60161.000000,2.000000
-6.87525001,-8.12025001,-1.33750003,216,224,235,1.000000,1.000000,229.947550,45961.000000,2.000000
-6.87425003,-8.11975001,-1.33999997,215,225,234,1.000000,1.000000,229.947550,50418.000000,2.000000
-6.86999998,-8.11325001,-1.34024995,222,231,235,1.000000,1.000000,229.927011,65535.000000,2.000000
-6.86300001,-8.13050001,-1.33425003,207,218,222,2.000000,1.000000,230.070856,11861.000000,2.000000
-6.86174998,-8.13199999,-1.33499997,194,204,201,2.000000,1.000000,230.091394,11905.000000,2.000000
-6.87249997,-8.12100001,-1.33400004,211,221,232,2.000000,1.000000,229.968103,34187.000000,2.000000
-6.86924997,-8.12800001,-1.33625000,210,222,236,2.000000,1.000000,230.029749,29184.000000,2.000000
-6.86924997,-8.12550001,-1.33550005,208,220,234,2.000000,1.000000,230.009195,30277.000000,2.000000
-6.86300001,-8.12675001,-1.33324998,209,221,233,2.000000,1.000000,230.050302,22063.000000,2.000000
-6.86999998,-8.12275000,-1.33524995,205,218,230,2.000000,1.000000,229.988657,33444.000000,2.000000
-6.86749998,-8.12424999,-1.33199995,205,217,231,2.000000,1.000000,230.009195,20818.000000,2.000000
-6.86649999,-8.12600001,-1.32925003,206,218,231,2.000000,1.000000,230.029749,10988.000000,2.000000
-6.86450002,-8.12775000,-1.33125000,206,218,229,2.000000,1.000000,230.050302,14374.000000,2.000000
-6.86499998,-8.12475001,-1.33149999,208,220,234,2.000000,1.000000,230.029749,20905.000000,2.000000
-6.86999998,-8.12275000,-1.33250003,204,216,228,2.000000,1.000000,229.988642,26257.000000,2.000000
-6.86875001,-8.12174999,-1.32900005,204,216,228,2.000000,1.000000,229.988642,19245.000000,2.000000
-6.87425003,-8.11950000,-1.33425003,216,224,235,2.000000,1.000000,229.947550,40129.000000,2.000000
-6.87399998,-8.11924999,-1.33125000,212,222,232,2.000000,1.000000,229.947550,31238.000000,2.000000
-6.87149999,-8.12049999,-1.32775002,207,220,229,2.000000,1.000000,229.968088,20075.000000,2.000000
-6.86600003,-8.12299999,-1.32824998,204,216,230,2.000000,1.000000,230.009195,11861.000000,2.000000
-6.87125000,-8.12000000,-1.32475000,207,220,229,2.000000,1.000000,229.968088,13347.000000,2.000000
-6.87300000,-8.11175000,-1.34199994,227,234,233,1.000000,1.000000,229.906458,65535.000000,2.000000
-6.87425003,-8.11000000,-1.34199994,211,221,208,1.000000,1.000000,229.885904,65535.000000,2.000000
-6.87724999,-8.11224999,-1.33174997,225,228,232,1.000000,1.000000,229.885889,49413.000000,2.000000
-6.87824997,-8.11500000,-1.30724996,202,215,224,2.000000,1.000000,229.906412,38687.000000,2.000000
-6.87675002,-8.11400001,-1.30374997,197,208,210,2.000000,1.000000,229.906412,42750.000000,2.000000
-6.86924997,-8.12749999,-1.33824997,109,119,89,2.000000,1.000000,211.994410,17956.000000,2.000000
-6.87700001,-8.12000000,-1.33625000,146,158,144,1.000000,1.000000,212.076593,47534.000000,2.000000
-6.87399998,-8.12699999,-1.34324997,118,132,115,2.000000,1.000000,212.035517,48845.000000,2.000000
-6.87324998,-8.12325000,-1.34225004,143,157,141,2.000000,1.000000,212.035517,45219.000000,2.000000
-6.87224999,-8.11900001,-1.34149998,152,166,150,2.000000,1.000000,212.035501,39932.000000,2.000000
-6.87499997,-8.12000000,-1.34100001,146,160,145,1.000000,1.000000,212.056055,46071.000000,2.000000
-6.87275002,-8.12124999,-1.33775001,157,170,156,2.000000,1.000000,212.035501,38053.000000,2.000000
-6.87525001,-8.12049999,-1.33824997,141,155,140,2.000000,1.000000,212.056055,45896.000000,2.000000
-6.87100002,-8.12575000,-1.33674996,138,149,126,2.000000,1.000000,212.014948,21823.000000,2.000000
-6.87100002,-8.12575000,-1.33425003,156,164,141,2.000000,1.000000,212.014948,17781.000000,2.000000
-6.87474999,-8.11900001,-1.33625000,153,166,151,2.000000,1.000000,212.056055,47119.000000,2.000000
-6.87200001,-8.11875000,-1.33625000,150,163,148,2.000000,1.000000,212.035501,34995.000000,2.000000
-6.87724999,-8.12124999,-1.32800000,64,70,60,2.000000,1.000000,212.076593,43755.000000,2.000000
-6.87300000,-8.12275000,-1.33199995,152,164,150,2.000000,1.000000,212.035501,30167.000000,2.000000
-6.87775001,-8.11400001,-1.34624999,55,46,26,1.000000,1.000000,203.091139,55005.000000,2.000000
-6.87950000,-8.11300000,-1.34349995,129,124,107,1.000000,1.000000,203.091139,52034.000000,2.000000
-6.87824997,-8.11375000,-1.33974998,191,199,199,1.000000,1.000000,203.091139,52318.000000,2.000000
-6.88000003,-8.11300000,-1.33699995,193,211,223,1.000000,1.000000,203.091131,51685.000000,2.000000
-6.88175002,-8.11474999,-1.34149998,183,191,193,1.000000,1.000000,203.111685,53105.000000,2.000000
-6.87574998,-8.12124999,-1.33499997,184,201,215,1.000000,1.000000,203.132231,49566.000000,2.000000
-6.88325003,-8.11775001,-1.33100002,186,200,216,1.000000,1.000000,203.132223,53542.000000,2.000000
-6.88500002,-8.12374999,-1.32725006,184,196,198,1.000000,1.000000,203.173323,49828.000000,2.000000
-6.87950000,-8.11950000,-1.32324999,185,200,217,1.000000,1.000000,203.132215,50046.000000,2.000000
-6.88025001,-8.11900001,-1.31699996,184,200,218,1.000000,1.000000,203.132208,49522.000000,2.000000
-6.88549999,-8.12049999,-1.32425004,188,203,214,1.000000,1.000000,203.152769,49457.000000,2.000000
-6.87850002,-8.10649999,-1.34725004,111,101,59,1.000000,1.000000,203.050039,55420.000000,2.000000
-6.88100001,-8.10899999,-1.33425003,182,188,197,1.000000,1.000000,203.070578,52034.000000,2.000000
-6.88149998,-8.11224999,-1.33425003,191,207,221,1.000000,1.000000,203.091131,52886.000000,2.000000
-6.89575002,-8.10625001,-1.33550005,187,203,216,1.000000,1.000000,203.091124,52733.000000,2.000000
-6.88624999,-8.11000000,-1.32575005,184,200,216,1.000000,1.000000,203.091116,53301.000000,2.000000
-6.88724998,-8.11224999,-1.32349997,184,201,217,1.000000,1.000000,203.111662,52231.000000,2.000000
-6.88600001,-8.10649999,-1.31600004,187,199,212,1.000000,1.000000,203.070555,52362.000000,2.000000
-6.88624999,-8.10625001,-1.31275003,183,195,206,1.000000,1.000000,203.070555,52034.000000,2.000000
-6.88125000,-8.11224999,-1.31100004,181,200,217,1.000000,1.000000,203.091101,49369.000000,2.000000
-6.88724998,-8.10950001,-1.30950003,185,204,221,1.000000,1.000000,203.091101,52165.000000,2.000000
