//X,Y,Z,R,G,B,NumberOfReturns,ReturnNumber,GpsTime,Intensity,Classification
493
-7.23725000,-8.12650000,-0.88474994,93,111,70,2.000000,1.000000,215.364023,25646.000000,0.000000
-7.26499999,-8.13150000,-0.87749999,71,84,46,2.000000,1.000000,215.610620,12123.000000,0.000000
-7.26049999,-8.13150000,-0.87799995,117,134,76,2.000000,1.000000,215.569513,12975.000000,0.000000
-7.26425001,-8.12550001,-0.87675004,84,95,63,2.000000,1.000000,215.610620,20927.000000,0.000000
-7.25999999,-8.12600001,-0.87725001,86,102,54,2.000000,1.000000,215.569513,26279.000000,0.000000
-7.26175001,-8.12249999,-0.87850004,88,102,61,2.000000,1.000000,215.590067,22325.000000,0.000000
-7.26699999,-8.12850001,-0.87575000,76,87,58,3.000000,1.000000,215.631159,11708.000000,0.000000
-7.26850000,-8.12374999,-0.87500005,90,102,83,3.000000,1.000000,215.651712,17978.000000,0.000000
-7.27074999,-8.11875000,-0.87575000,104,115,99,3.000000,1.000000,215.672266,14701.000000,0.000000
-7.26425001,-8.12174999,-0.87525003,90,100,79,3.000000,1.000000,215.610605,29141.000000,0.000000
-7.26650000,-8.12025001,-0.87550002,74,86,66,3.000000,1.000000,215.631159,24204.000000,0.000000
-7.26175001,-8.12174999,-0.87624996,76,86,59,3.000000,1.000000,215.590067,29206.000000,0.000000
-7.26150000,-8.12049999,-0.87449997,75,85,64,3.000000,1.000000,215.590052,35104.000000,0.000000
-7.26374999,-8.11850001,-0.87375002,79,88,74,3.000000,1.000000,215.610605,36066.000000,0.000000
-7.25349999,-8.12824999,-0.87924998,111,129,62,3.000000,1.000000,215.507868,14352.000000,0.000000
-7.24875000,-8.13100000,-0.88124996,116,129,68,3.000000,1.000000,215.466776,18830.000000,0.000000
-7.24675000,-8.12999999,-0.88099998,113,128,71,3.000000,1.000000,215.446222,23199.000000,0.000000
-7.24474999,-8.13375001,-0.88000005,94,113,58,2.000000,1.000000,215.425669,23221.000000,0.000000
-7.25749999,-8.12624999,-0.87700003,108,126,69,2.000000,1.000000,215.548960,21386.000000,0.000000
-7.25299999,-8.12275000,-0.87825006,115,133,70,3.000000,1.000000,215.507868,21495.000000,0.000000
-7.25075001,-8.12499999,-0.88200002,108,124,58,3.000000,1.000000,215.487314,18327.000000,0.000000
-7.24800000,-8.12424999,-0.88074999,107,124,63,3.000000,1.000000,215.466761,27568.000000,0.000000
-7.24800000,-8.12475001,-0.87799995,109,127,65,3.000000,1.000000,215.466761,32439.000000,0.000000
-7.24625000,-8.12475001,-0.88000005,99,117,59,2.000000,1.000000,215.446222,29905.000000,0.000000
-7.24625000,-8.12275000,-0.87825006,105,123,62,2.000000,1.000000,215.446207,33182.000000,0.000000
-7.25049999,-8.12200000,-0.88050001,117,136,71,3.000000,1.000000,215.487314,26148.000000,0.000000
-7.25049999,-8.12150001,-0.87825006,117,135,73,2.000000,1.000000,215.487314,30954.000000,0.000000
-7.25575000,-8.13300001,-0.87624996,111,129,65,3.000000,1.000000,215.528406,14046.000000,0.000000
-7.25500000,-8.12424999,-0.87599998,114,134,76,3.000000,1.000000,215.528406,22980.000000,0.000000
-7.25275001,-8.12325000,-0.87575000,118,138,77,3.000000,1.000000,215.507852,26781.000000,0.000000
-7.25975001,-8.12150001,-0.87599998,70,85,48,2.000000,1.000000,215.569513,31762.000000,0.000000
-7.25700000,-8.11950000,-0.87649994,109,127,79,3.000000,1.000000,215.548960,27655.000000,0.000000
-7.25950000,-8.12000000,-0.87400001,84,97,69,2.000000,1.000000,215.569513,36721.000000,0.000000
-7.25049999,-8.12249999,-0.87575000,120,140,77,3.000000,1.000000,215.487314,35279.000000,0.000000
-7.27024999,-8.11500000,-0.87449997,106,117,103,2.000000,1.000000,215.672251,24160.000000,0.000000
-7.27050001,-8.11750000,-0.87149995,103,113,102,3.000000,1.000000,215.672251,24531.000000,0.000000
-7.26600000,-8.11599999,-0.87449997,81,92,79,2.000000,1.000000,215.631159,33422.000000,0.000000
-7.26775000,-8.11450001,-0.87500005,79,90,76,3.000000,1.000000,215.651712,29097.000000,0.000000
-7.26775000,-8.11325001,-0.87299996,67,77,68,3.000000,1.000000,215.651697,30932.000000,0.000000
-7.26624999,-8.11850001,-0.86175006,94,109,71,2.000000,1.000000,215.631144,16624.000000,0.000000
-7.24399999,-8.12675001,-0.86299997,83,93,49,3.000000,1.000000,215.425638,18393.000000,0.000000
-7.24599999,-8.12174999,-0.86675005,79,97,49,2.000000,1.000000,215.446192,30932.000000,0.000000
-7.24575001,-8.12049999,-0.86474996,72,82,44,2.000000,1.000000,215.446192,20861.000000,0.000000
-7.25000000,-8.11850001,-0.86250000,80,89,52,3.000000,1.000000,215.487284,21823.000000,0.000000
-7.24774999,-8.12049999,-0.86274999,76,81,49,2.000000,1.000000,215.466745,18196.000000,0.000000
-7.25275001,-8.11950000,-0.86025005,86,93,55,3.000000,1.000000,215.507837,13085.000000,0.000000
-7.26800001,-8.11724999,-0.86274999,88,101,79,2.000000,1.000000,215.651682,12102.000000,0.000000
-7.26350001,-8.11474999,-0.86299997,110,124,77,3.000000,1.000000,215.610590,24750.000000,0.000000
-7.26100001,-8.11724999,-0.86099999,86,93,54,3.000000,1.000000,215.590036,16165.000000,0.000000
-7.26075000,-8.11424999,-0.86425000,82,94,48,3.000000,1.000000,215.590036,29447.000000,0.000000
-7.25224999,-8.11575001,-0.86599999,100,119,74,1.000000,1.000000,215.507837,37114.000000,0.000000
-7.25375000,-8.11250000,-0.86499994,94,109,71,2.000000,1.000000,215.528391,30146.000000,0.000000
-7.25250000,-8.11700000,-0.86324995,108,120,80,2.000000,1.000000,215.507837,29534.000000,0.000000
-7.25400001,-8.11599999,-0.86175006,77,85,49,3.000000,1.000000,215.528391,17344.000000,0.000000
-7.25900000,-8.11400001,-0.86375003,63,71,35,3.000000,1.000000,215.569483,26170.000000,0.000000
-7.25650001,-8.11400001,-0.86375003,68,76,46,2.000000,1.000000,215.548944,24422.000000,0.000000
-7.24974999,-8.11474999,-0.86599999,73,86,47,2.000000,1.000000,215.487299,32155.000000,0.000000
-7.24750000,-8.11799999,-0.86575001,56,67,31,2.000000,1.000000,215.466745,28420.000000,0.000000
-7.24225000,-8.13324999,-0.88299995,104,123,68,3.000000,1.000000,215.405130,11949.000000,0.000000
-7.24000001,-8.12850001,-0.88400000,99,118,71,3.000000,1.000000,215.384577,19114.000000,0.000000
-7.24175000,-8.12850001,-0.88200002,105,125,73,2.000000,1.000000,215.405115,23876.000000,0.000000
-7.24175000,-8.12850001,-0.87974995,103,123,71,3.000000,1.000000,215.405115,30910.000000,0.000000
-7.23949999,-8.12624999,-0.88000005,102,121,74,2.000000,1.000000,215.384561,36197.000000,0.000000
-7.23699999,-8.12499999,-0.88274997,91,111,69,3.000000,1.000000,215.364023,32854.000000,0.000000
-7.23925001,-8.12374999,-0.88299995,97,116,70,3.000000,1.000000,215.384577,29447.000000,0.000000
-7.24375001,-8.12424999,-0.88025003,89,108,52,3.000000,1.000000,215.425669,29250.000000,0.000000
-7.24350000,-8.12325000,-0.87825006,99,119,59,3.000000,1.000000,215.425669,31282.000000,0.000000
-7.24125001,-8.12374999,-0.87850004,103,122,66,3.000000,1.000000,215.405115,35192.000000,0.000000
-7.23324999,-8.13025000,-0.86525004,102,117,74,2.000000,1.000000,215.322901,24051.000000,0.000000
-7.23449999,-8.12600001,-0.86474996,106,123,69,2.000000,1.000000,215.343439,18764.000000,0.000000
-7.24350000,-8.12025001,-0.86725002,95,113,55,2.000000,1.000000,215.425653,29425.000000,0.000000
-7.24100000,-8.12075000,-0.86750000,107,126,63,2.000000,1.000000,215.405100,33794.000000,0.000000
-7.23899999,-8.12075000,-0.86725002,117,136,71,2.000000,1.000000,215.384546,33313.000000,0.000000
-7.23650000,-8.12000000,-0.86750000,110,128,66,2.000000,1.000000,215.363993,30714.000000,0.000000
-7.24100000,-8.12400000,-0.86425000,101,115,59,3.000000,1.000000,215.405100,24007.000000,0.000000
-7.23675001,-8.12424999,-0.86425000,105,123,61,2.000000,1.000000,215.363993,22347.000000,0.000000
-7.23925001,-8.12374999,-0.86400002,110,128,65,2.000000,1.000000,215.384546,23636.000000,0.000000
-7.23449999,-8.12424999,-0.86725002,108,125,71,2.000000,1.000000,215.343439,29053.000000,0.000000
-7.22975001,-8.07625001,-0.85375004,73,76,48,2.000000,1.000000,215.343409,12932.000000,0.000000
-7.22775000,-8.07500001,-0.85575002,68,72,41,3.000000,1.000000,215.322855,16602.000000,0.000000
-7.22775000,-8.07524999,-0.85324996,69,72,43,3.000000,1.000000,215.322855,22478.000000,0.000000
-7.22500000,-8.07324999,-0.85375004,67,71,41,2.000000,1.000000,215.302301,34209.000000,0.000000
-7.22250000,-8.07100000,-0.85499995,71,78,46,2.000000,1.000000,215.281763,35825.000000,0.000000
-7.23425001,-8.09874999,-0.84474998,84,91,54,2.000000,1.000000,215.363962,11359.000000,0.000000
-7.24274999,-8.08875000,-0.84674995,81,89,51,2.000000,1.000000,215.446161,11905.000000,0.000000
-7.24250001,-8.08700000,-0.84474998,105,115,68,2.000000,1.000000,215.446146,18087.000000,0.000000
-7.24024999,-8.08875000,-0.84674995,97,109,67,2.000000,1.000000,215.425608,20403.000000,0.000000
-7.23750001,-8.08625000,-0.84775000,99,110,67,2.000000,1.000000,215.405054,15400.000000,0.000000
-7.23550001,-8.08650001,-0.84750002,102,112,70,2.000000,1.000000,215.384500,15619.000000,0.000000
-7.22874999,-8.08725001,-0.84550004,73,77,47,3.000000,1.000000,215.322855,26956.000000,0.000000
-7.23150000,-8.09749999,-0.84349995,77,80,48,2.000000,1.000000,215.343409,20337.000000,0.000000
-7.24250001,-8.08700000,-0.84250002,114,123,69,3.000000,1.000000,215.446146,19267.000000,0.000000
-7.24250001,-8.08650001,-0.84024995,113,120,57,2.000000,1.000000,215.446146,21692.000000,0.000000
-7.24450001,-8.08875000,-0.83775001,110,115,54,2.000000,1.000000,215.466684,13238.000000,0.000000
-7.23374999,-8.09150000,-0.84425002,99,106,64,2.000000,1.000000,215.363947,20534.000000,0.000000
-7.23300001,-8.08650001,-0.84299999,102,109,64,2.000000,1.000000,215.363947,29731.000000,0.000000
-7.23100001,-8.08975001,-0.84324997,85,90,55,2.000000,1.000000,215.343393,26585.000000,0.000000
-7.22900000,-8.08900001,-0.84275001,81,86,56,2.000000,1.000000,215.322855,30517.000000,0.000000
-7.23075000,-8.08725001,-0.84149998,78,85,50,2.000000,1.000000,215.343393,34973.000000,0.000000
-7.22874999,-8.08650001,-0.84100001,76,82,54,2.000000,1.000000,215.322840,36961.000000,0.000000
-7.22624999,-8.08700000,-0.84299999,84,92,66,2.000000,1.000000,215.302301,36437.000000,0.000000
-7.22400001,-8.08775001,-0.84125000,94,109,80,2.000000,1.000000,215.281748,37420.000000,0.000000
-7.22174999,-8.08575000,-0.84174996,89,107,74,2.000000,1.000000,215.261194,34733.000000,0.000000
-7.22650001,-8.08900001,-0.84024995,89,99,74,2.000000,1.000000,215.302301,38469.000000,0.000000
-7.22624999,-8.08575000,-0.83875006,91,103,77,1.000000,1.000000,215.302286,39517.000000,0.000000
-7.22400001,-8.08750000,-0.83900004,100,115,87,2.000000,1.000000,215.281748,38512.000000,0.000000
-7.22200000,-8.08850001,-0.83849996,97,116,81,2.000000,1.000000,215.261194,37486.000000,0.000000
-7.22375000,-8.08575000,-0.83699995,102,119,86,2.000000,1.000000,215.281733,38621.000000,0.000000
-7.22174999,-8.08599999,-0.83674996,103,120,85,2.000000,1.000000,215.261194,38032.000000,0.000000
-7.21924999,-8.08575000,-0.84174996,76,94,59,2.000000,1.000000,215.240641,32068.000000,0.000000
-7.21699998,-8.08549999,-0.83999997,90,109,73,2.000000,1.000000,215.220087,37070.000000,0.000000
-7.21949998,-8.08674999,-0.83674996,94,112,74,2.000000,1.000000,215.240641,36568.000000,0.000000
-7.21699998,-8.08725001,-0.83725005,97,114,76,2.000000,1.000000,215.220087,38621.000000,0.000000
-7.21274999,-8.08650001,-0.83900004,100,117,83,3.000000,1.000000,215.178995,38578.000000,0.000000
-7.23725000,-8.08375000,-0.84624999,108,121,68,2.000000,1.000000,215.405054,28114.000000,0.000000
-7.23949999,-8.07974999,-0.84649997,113,123,71,3.000000,1.000000,215.425608,26803.000000,0.000000
-7.23025000,-8.08175000,-0.84974998,73,76,46,2.000000,1.000000,215.343409,14679.000000,0.000000
-7.23525000,-8.08375000,-0.84600001,112,124,73,2.000000,1.000000,215.384500,26454.000000,0.000000
-7.24425000,-8.08599999,-0.84075003,99,104,48,2.000000,1.000000,215.466700,14308.000000,0.000000
-7.23949999,-8.08050000,-0.84400003,121,132,72,3.000000,1.000000,215.425592,30080.000000,0.000000
-7.23725000,-8.08099999,-0.84450000,121,132,75,3.000000,1.000000,215.405054,32199.000000,0.000000
-7.23949999,-8.08000000,-0.84174996,122,130,70,2.000000,1.000000,215.425592,31129.000000,0.000000
-7.23699999,-8.08075001,-0.84225004,133,142,85,3.000000,1.000000,215.405039,34952.000000,0.000000
-7.24200001,-8.08349999,-0.83849996,119,122,53,2.000000,1.000000,215.446146,20971.000000,0.000000
-7.23949999,-8.08099999,-0.83925002,127,134,71,2.000000,1.000000,215.425592,32046.000000,0.000000
-7.23725000,-8.08175000,-0.83950000,138,147,89,2.000000,1.000000,215.405039,37333.000000,0.000000
-7.23525000,-8.08349999,-0.84349995,120,130,77,3.000000,1.000000,215.384500,31893.000000,0.000000
-7.23275000,-8.08375000,-0.84125000,104,112,66,2.000000,1.000000,215.363947,36459.000000,0.000000
-7.23499999,-8.07974999,-0.84199994,131,142,88,1.000000,1.000000,215.384500,36634.000000,0.000000
-7.23525000,-8.08349999,-0.83875006,130,140,86,2.000000,1.000000,215.384485,38381.000000,0.000000
-7.23300001,-8.08549999,-0.83849996,112,121,74,2.000000,1.000000,215.363947,39823.000000,0.000000
-7.23499999,-8.08250000,-0.83674996,123,132,80,2.000000,1.000000,215.384485,37202.000000,0.000000
-7.23050001,-8.08549999,-0.83950000,84,92,59,2.000000,1.000000,215.343393,40413.000000,0.000000
-7.23050001,-8.08525001,-0.83725005,96,109,74,2.000000,1.000000,215.343393,40631.000000,0.000000
-7.23925001,-8.07700001,-0.83775001,149,154,86,2.000000,1.000000,215.425592,31544.000000,0.000000
-7.23675001,-8.07774999,-0.83824997,129,137,78,2.000000,1.000000,215.405039,34668.000000,0.000000
-7.22850001,-8.08275001,-0.84900003,72,75,46,3.000000,1.000000,215.322855,23352.000000,0.000000
-7.22575000,-8.07925000,-0.84974998,68,72,45,2.000000,1.000000,215.302301,35388.000000,0.000000
-7.22600001,-8.08424999,-0.84624999,71,77,51,1.000000,1.000000,215.302301,35345.000000,0.000000
-7.22325000,-8.07974999,-0.84799998,74,84,57,1.000000,1.000000,215.281748,37682.000000,0.000000
-7.22099999,-8.07800000,-0.84824996,89,103,73,1.000000,1.000000,215.261194,36284.000000,0.000000
-7.21874997,-8.07849999,-0.84575003,84,99,67,2.000000,1.000000,215.240641,29534.000000,0.000000
-7.21449998,-8.07849999,-0.84600001,85,100,69,3.000000,1.000000,215.199549,33816.000000,0.000000
-7.22250000,-8.07399999,-0.85200005,63,73,43,1.000000,1.000000,215.281748,38053.000000,0.000000
-7.22049999,-8.07250001,-0.85200005,70,82,52,1.000000,1.000000,215.261209,38119.000000,0.000000
-7.21774998,-8.07125001,-0.84999996,89,104,74,2.000000,1.000000,215.240656,31915.000000,0.000000
-7.21599999,-8.07550000,-0.84725004,85,100,68,2.000000,1.000000,215.220102,30932.000000,0.000000
-7.22375000,-8.08525001,-0.84425002,90,102,73,2.000000,1.000000,215.281748,37573.000000,0.000000
-7.22150001,-8.08325001,-0.84450000,95,110,79,3.000000,1.000000,215.261194,35432.000000,0.000000
-7.22850001,-8.08500000,-0.83900004,81,89,61,1.000000,1.000000,215.322840,40107.000000,0.000000
-7.21475002,-8.08325001,-0.84250002,95,112,80,2.000000,1.000000,215.199549,35519.000000,0.000000
-7.21624997,-8.07800000,-0.84425002,86,103,69,3.000000,1.000000,215.220087,32789.000000,0.000000
-7.21924999,-8.08424999,-0.83974998,84,104,66,2.000000,1.000000,215.240641,34121.000000,0.000000
-7.21500000,-8.08474999,-0.83974998,101,119,84,2.000000,1.000000,215.199533,38600.000000,0.000000
-7.24250001,-8.08750000,-0.83275002,169,176,92,3.000000,1.000000,215.446131,17082.000000,0.000000
-7.23750001,-8.08750000,-0.82874995,100,110,69,3.000000,1.000000,215.405024,15138.000000,0.000000
-7.22874999,-8.08650001,-0.83625000,94,108,74,2.000000,1.000000,215.322840,39998.000000,0.000000
-7.23100001,-8.08999999,-0.82649999,56,63,46,3.000000,1.000000,215.343378,22456.000000,0.000000
-7.23574999,-8.08924999,-0.82800000,86,93,63,3.000000,1.000000,215.384470,18524.000000,0.000000
-7.23300001,-8.08725001,-0.82625001,64,69,51,3.000000,1.000000,215.363932,11359.000000,0.000000
-7.23075000,-8.08850001,-0.82450002,52,58,46,2.000000,1.000000,215.343378,13172.000000,0.000000
-7.22874999,-8.08775001,-0.82425004,57,63,51,2.000000,1.000000,215.322824,17410.000000,0.000000
-7.22624999,-8.08599999,-0.83400004,104,119,90,1.000000,1.000000,215.302286,33641.000000,0.000000
-7.22174999,-8.08674999,-0.83174997,103,118,87,2.000000,1.000000,215.261179,34799.000000,0.000000
-7.22174999,-8.08650001,-0.82950001,100,113,90,2.000000,1.000000,215.261179,37988.000000,0.000000
-7.21949998,-8.08750000,-0.83174997,84,99,68,3.000000,1.000000,215.240625,38272.000000,0.000000
-7.21924999,-8.08575000,-0.82999998,81,94,71,1.000000,1.000000,215.240625,38075.000000,0.000000
-7.21699998,-8.08650001,-0.83024996,67,78,56,2.000000,1.000000,215.220072,35913.000000,0.000000
-7.21500000,-8.08625000,-0.82974999,66,74,56,3.000000,1.000000,215.199533,32308.000000,0.000000
-7.21349999,-8.09600001,-0.82250004,103,113,104,3.000000,1.000000,215.178965,22631.000000,0.000000
-7.22624999,-8.08625000,-0.82199996,68,76,65,2.000000,1.000000,215.302271,16143.000000,0.000000
-7.21349999,-8.09225001,-0.82824998,69,76,60,2.000000,1.000000,215.178980,32068.000000,0.000000
-7.21325001,-8.09150000,-0.82600003,83,91,80,3.000000,1.000000,215.178980,26803.000000,0.000000
-7.21949998,-8.08700000,-0.82725006,78,89,74,3.000000,1.000000,215.240625,35847.000000,0.000000
-7.21524999,-8.08750000,-0.82725006,89,97,86,3.000000,1.000000,215.199518,25580.000000,0.000000
-7.21575001,-8.09225001,-0.82374995,104,114,106,3.000000,1.000000,215.199518,21888.000000,0.000000
-7.21550003,-8.09025001,-0.82174998,93,104,96,2.000000,1.000000,215.199518,16383.000000,0.000000
-7.21699998,-8.08674999,-0.82324999,74,85,79,2.000000,1.000000,215.220072,25580.000000,0.000000
-7.21675000,-8.08625000,-0.82100003,71,84,75,2.000000,1.000000,215.220056,18677.000000,0.000000
-7.24425000,-8.08474999,-0.83625000,160,161,83,2.000000,1.000000,215.466684,12123.000000,0.000000
-7.24200001,-8.08349999,-0.83625000,156,156,77,2.000000,1.000000,215.446131,21866.000000,0.000000
-7.23699999,-8.08000000,-0.83524995,128,136,80,3.000000,1.000000,215.405039,31434.000000,0.000000
-7.23975000,-8.08125000,-0.83425003,157,165,97,2.000000,1.000000,215.425577,26082.000000,0.000000
-7.23975000,-8.08400001,-0.83125000,142,152,91,2.000000,1.000000,215.425577,15313.000000,0.000000
-7.23725000,-8.08400001,-0.83199995,122,132,80,3.000000,1.000000,215.405024,24903.000000,0.000000
-7.23275000,-8.08474999,-0.83649998,111,123,75,2.000000,1.000000,215.363932,39692.000000,0.000000
-7.23275000,-8.08224999,-0.83474999,101,112,72,2.000000,1.000000,215.363932,35563.000000,0.000000
-7.22999999,-8.08250000,-0.83550005,98,110,76,1.000000,1.000000,215.343378,37660.000000,0.000000
-7.23025000,-8.08325001,-0.83275002,87,97,68,2.000000,1.000000,215.343378,33488.000000,0.000000
-7.23525000,-8.08175000,-0.83450001,113,122,76,1.000000,1.000000,215.384485,32767.000000,0.000000
-7.23525000,-8.08200001,-0.83199995,101,109,72,3.000000,1.000000,215.384485,26388.000000,0.000000
-7.23300001,-8.08549999,-0.82925003,77,82,59,2.000000,1.000000,215.363932,24641.000000,0.000000
-7.22999999,-8.08200001,-0.83075004,69,77,54,3.000000,1.000000,215.343378,28529.000000,0.000000
-7.23275000,-8.08175000,-0.83250003,95,102,72,2.000000,1.000000,215.363932,32046.000000,0.000000
-7.22850001,-8.08474999,-0.83425003,104,116,86,2.000000,1.000000,215.322840,36306.000000,0.000000
-7.22825000,-8.08275001,-0.83250003,89,99,72,2.000000,1.000000,215.322824,31369.000000,0.000000
-7.22575000,-8.08299999,-0.83225005,93,106,81,2.000000,1.000000,215.302286,33553.000000,0.000000
-7.22850001,-8.08500000,-0.82950001,57,65,44,3.000000,1.000000,215.322824,29337.000000,0.000000
-7.22600001,-8.08525001,-0.82925003,71,81,62,3.000000,1.000000,215.302271,35476.000000,0.000000
-7.22350001,-8.08474999,-0.83250003,102,117,88,2.000000,1.000000,215.281733,33248.000000,0.000000
-7.22325000,-8.08275001,-0.83050006,95,107,85,1.000000,1.000000,215.281733,36612.000000,0.000000
-7.21650002,-8.08250000,-0.82900005,80,90,76,3.000000,1.000000,215.220072,32068.000000,0.000000
-7.22825000,-8.08400001,-0.82750004,56,62,48,2.000000,1.000000,215.322824,25536.000000,0.000000
-7.22575000,-8.08325001,-0.82750004,58,66,53,3.000000,1.000000,215.302271,32985.000000,0.000000
-7.22350001,-8.08424999,-0.82800000,76,87,72,3.000000,1.000000,215.281717,36109.000000,0.000000
-7.22150001,-8.08400001,-0.82549994,66,77,67,2.000000,1.000000,215.261164,35061.000000,0.000000
-7.22575000,-8.08024999,-0.82575005,63,71,61,2.000000,1.000000,215.302271,27109.000000,0.000000
-7.22150001,-8.08150001,-0.82824998,81,92,79,1.000000,1.000000,215.261179,36524.000000,0.000000
-7.22325000,-8.08125000,-0.82625001,58,65,57,2.000000,1.000000,215.281717,32549.000000,0.000000
-7.22150001,-8.08375000,-0.82300001,81,91,84,2.000000,1.000000,215.261164,30954.000000,0.000000
-7.22325000,-8.08275001,-0.82349997,71,78,71,2.000000,1.000000,215.281717,27262.000000,0.000000
-7.21900001,-8.08450001,-0.82549994,69,79,71,3.000000,1.000000,215.240625,33532.000000,0.000000
-7.21650002,-8.08125000,-0.82699996,83,93,85,2.000000,1.000000,215.220072,28813.000000,0.000000
-7.21874997,-8.08275001,-0.82349997,79,90,84,2.000000,1.000000,215.240610,30517.000000,0.000000
-7.21024999,-8.08575000,-0.83974998,106,121,90,3.000000,1.000000,215.158441,34449.000000,0.000000
-7.21049997,-8.08750000,-0.83699995,92,106,71,2.000000,1.000000,215.158441,32439.000000,0.000000
-7.20850000,-8.08700000,-0.83875006,103,118,86,3.000000,1.000000,215.137888,29075.000000,0.000000
-7.21225003,-8.08024999,-0.84524994,94,109,80,2.000000,1.000000,215.178995,38556.000000,0.000000
-7.21250001,-8.08349999,-0.84225004,103,120,90,2.000000,1.000000,215.178995,38425.000000,0.000000
-7.21000001,-8.08099999,-0.84324997,107,122,92,2.000000,1.000000,215.158441,36568.000000,0.000000
-7.20900002,-8.09400000,-0.82524996,106,113,105,2.000000,1.000000,215.137873,33422.000000,0.000000
-7.20900002,-8.09425001,-0.82275002,92,100,92,3.000000,1.000000,215.137873,28769.000000,0.000000
-7.20449999,-8.09650000,-0.82275002,57,62,56,3.000000,1.000000,215.096765,21451.000000,0.000000
-7.20650002,-8.09475001,-0.82275002,82,88,82,3.000000,1.000000,215.117319,25580.000000,0.000000
-7.20275000,-8.09925001,-0.82174998,63,67,55,2.000000,1.000000,215.076227,19988.000000,0.000000
-7.21100000,-8.09325000,-0.82600003,98,105,96,3.000000,1.000000,215.158426,32090.000000,0.000000
-7.20650002,-8.09325000,-0.82549994,89,94,88,3.000000,1.000000,215.117319,32767.000000,0.000000
-7.21100000,-8.09200000,-0.82400005,103,112,103,3.000000,1.000000,215.158426,29731.000000,0.000000
-7.20900002,-8.09299999,-0.82075005,88,98,89,3.000000,1.000000,215.137873,19136.000000,0.000000
-7.19974998,-8.09200000,-0.82125001,66,72,52,2.000000,1.000000,215.055674,29359.000000,0.000000
-7.19750002,-8.09124999,-0.82199996,108,112,78,2.000000,1.000000,215.035120,34689.000000,0.000000
-7.18899998,-8.09374999,-0.82174998,107,112,71,3.000000,1.000000,214.952921,34668.000000,0.000000
-7.18450001,-8.09775000,-0.82425004,95,103,52,1.000000,1.000000,214.911814,37202.000000,0.000000
-7.18450001,-8.09725001,-0.82199996,116,123,79,3.000000,1.000000,214.911814,32527.000000,0.000000
-7.18649998,-8.09374999,-0.82425004,72,79,37,3.000000,1.000000,214.932367,34580.000000,0.000000
-7.18675003,-8.09650000,-0.82125001,70,76,38,3.000000,1.000000,214.932367,31260.000000,0.000000
-7.18249998,-8.09600001,-0.82450002,105,115,59,3.000000,1.000000,214.891275,37267.000000,0.000000
-7.18249998,-8.09574999,-0.82199996,97,106,55,3.000000,1.000000,214.891260,31587.000000,0.000000
-7.19074997,-8.09124999,-0.82499998,110,115,67,1.000000,1.000000,214.973474,37223.000000,0.000000
-7.19350001,-8.09299999,-0.82400005,66,65,25,1.000000,1.000000,214.994013,39888.000000,0.000000
-7.19324997,-8.09174999,-0.82174998,67,65,27,1.000000,1.000000,214.994013,38316.000000,0.000000
-7.19549999,-8.09049999,-0.82199996,111,113,72,2.000000,1.000000,215.014566,36153.000000,0.000000
-7.18899998,-8.09275000,-0.82450002,107,113,66,1.000000,1.000000,214.952921,36502.000000,0.000000
-7.19074997,-8.09225001,-0.82250004,120,124,81,1.000000,1.000000,214.973474,37245.000000,0.000000
-7.18025002,-8.09675001,-0.82625001,124,136,73,1.000000,1.000000,214.870722,37748.000000,0.000000
-7.17749998,-8.09550001,-0.82475000,112,126,65,2.000000,1.000000,214.850168,37027.000000,0.000000
-7.17550001,-8.09574999,-0.82699996,118,136,73,2.000000,1.000000,214.829630,39037.000000,0.000000
-7.17324999,-8.09650000,-0.82649999,110,129,73,2.000000,1.000000,214.809076,35017.000000,0.000000
-7.17550001,-8.09299999,-0.82524996,116,131,75,2.000000,1.000000,214.829615,36765.000000,0.000000
-7.17275003,-8.09350001,-0.82499998,94,109,63,2.000000,1.000000,214.809076,34952.000000,0.000000
-7.18025002,-8.09600001,-0.82400005,98,109,52,2.000000,1.000000,214.870722,35541.000000,0.000000
-7.17749998,-8.09450000,-0.82275002,96,108,52,3.000000,1.000000,214.850168,33095.000000,0.000000
-7.18025002,-8.09600001,-0.82150000,95,105,51,3.000000,1.000000,214.870722,29927.000000,0.000000
-7.17550001,-8.09499999,-0.82250004,101,114,65,3.000000,1.000000,214.829615,33313.000000,0.000000
-7.17050001,-8.09525000,-0.82750004,111,131,74,2.000000,1.000000,214.788523,28922.000000,0.000000
-7.17074999,-8.09650000,-0.82499998,97,115,63,2.000000,1.000000,214.788523,31500.000000,0.000000
-7.16875002,-8.09525000,-0.82224994,98,114,73,3.000000,1.000000,214.767969,23614.000000,0.000000
-7.17300001,-8.09225001,-0.82300001,82,93,55,2.000000,1.000000,214.809061,31325.000000,0.000000
-7.17050001,-8.09225001,-0.82349997,76,91,51,2.000000,1.000000,214.788523,29993.000000,0.000000
-7.21374998,-8.09824999,-0.81975000,95,108,98,2.000000,1.000000,215.178965,15553.000000,0.000000
-7.22400001,-8.08900001,-0.81975000,84,91,84,2.000000,1.000000,215.281717,18786.000000,0.000000
-7.22200000,-8.08825000,-0.81975000,80,90,83,2.000000,1.000000,215.261164,22849.000000,0.000000
-7.21924999,-8.08650001,-0.82024997,62,73,65,2.000000,1.000000,215.240610,23898.000000,0.000000
-7.18525002,-8.10274999,-0.81824999,104,110,68,3.000000,1.000000,214.911814,23155.000000,0.000000
-7.19425002,-8.10250001,-0.81224995,104,107,57,2.000000,1.000000,214.994013,12342.000000,0.000000
-7.17400000,-8.10350000,-0.81549995,86,97,66,3.000000,1.000000,214.809061,11490.000000,0.000000
-7.21124998,-8.09725001,-0.82049995,97,108,99,3.000000,1.000000,215.158411,19442.000000,0.000000
-7.20675001,-8.09650000,-0.81975000,83,90,81,3.000000,1.000000,215.117319,13478.000000,0.000000
-7.20449999,-8.09624999,-0.82049995,57,62,55,3.000000,1.000000,215.096765,15051.000000,0.000000
-7.20275000,-8.09900000,-0.81724995,72,80,69,3.000000,1.000000,215.076212,13522.000000,0.000000
-7.20250002,-8.09699999,-0.81999999,62,68,57,3.000000,1.000000,215.076212,20730.000000,0.000000
-7.19750002,-8.09350001,-0.81674998,121,129,81,3.000000,1.000000,215.035105,21364.000000,0.000000
-7.20025000,-8.09650000,-0.81549995,80,94,60,3.000000,1.000000,215.055658,10310.000000,0.000000
-7.20000002,-8.09249999,-0.81874996,73,83,58,3.000000,1.000000,215.055658,22478.000000,0.000000
-7.19724998,-8.09075000,-0.81975000,113,118,80,3.000000,1.000000,215.035120,29840.000000,0.000000
-7.19125000,-8.09925001,-0.81374996,133,135,97,3.000000,1.000000,214.973459,14767.000000,0.000000
-7.19575003,-8.09475001,-0.81600004,127,132,78,2.000000,1.000000,215.014566,21233.000000,0.000000
-7.18675003,-8.09699999,-0.81874996,76,82,46,2.000000,1.000000,214.932367,22434.000000,0.000000
-7.18300000,-8.10025000,-0.81874996,90,98,49,3.000000,1.000000,214.891260,21517.000000,0.000000
-7.18074998,-8.10025000,-0.81824999,104,115,60,3.000000,1.000000,214.870707,20730.000000,0.000000
-7.19299999,-8.09100001,-0.81975000,85,84,43,2.000000,1.000000,214.994013,34842.000000,0.000000
-7.19525001,-8.08999999,-0.81975000,120,122,76,3.000000,1.000000,215.014566,31871.000000,0.000000
-7.18875000,-8.09100001,-0.82024997,110,115,75,3.000000,1.000000,214.952921,31282.000000,0.000000
-7.19049999,-8.09075000,-0.82024997,115,118,74,3.000000,1.000000,214.973459,34733.000000,0.000000
-7.19074997,-8.09150000,-0.81775003,114,115,75,2.000000,1.000000,214.973459,27655.000000,0.000000
-7.18899998,-8.09225001,-0.81750005,128,131,94,2.000000,1.000000,214.952906,25078.000000,0.000000
-7.19275001,-8.08850001,-0.81775003,125,126,76,2.000000,1.000000,214.994013,26716.000000,0.000000
-7.18625000,-8.09049999,-0.81800001,73,79,44,3.000000,1.000000,214.932367,10835.000000,0.000000
-7.17775002,-8.09675001,-0.81975000,111,123,68,2.000000,1.000000,214.850168,23090.000000,0.000000
-7.17599997,-8.09975000,-0.81874996,100,112,67,3.000000,1.000000,214.829615,23068.000000,0.000000
-7.17349997,-8.09925001,-0.81900006,80,90,55,3.000000,1.000000,214.809061,24400.000000,0.000000
-7.16924998,-8.09874999,-0.81925004,91,106,70,3.000000,1.000000,214.767969,18459.000000,0.000000
-7.17099998,-8.09749999,-0.81999999,82,93,60,2.000000,1.000000,214.788507,24531.000000,0.000000
-7.17099998,-8.09824999,-0.81750005,94,108,82,2.000000,1.000000,214.788507,15815.000000,0.000000
-7.39600000,-7.82275002,-0.82499998,96,104,82,3.000000,1.000000,216.946207,12604.000000,0.000000
-7.39399999,-7.82399999,-0.82425004,98,105,88,3.000000,1.000000,216.925653,19463.000000,0.000000
-7.39150000,-7.82074999,-0.82499998,105,109,95,3.000000,1.000000,216.905100,19988.000000,0.000000
-7.39375001,-7.82200002,-0.82224994,110,116,98,3.000000,1.000000,216.925653,26672.000000,0.000000
-7.38874999,-7.82149999,-0.82250004,102,105,91,3.000000,1.000000,216.884546,19485.000000,0.000000
-7.39150000,-7.81749999,-0.82300001,125,129,114,2.000000,1.000000,216.905100,28267.000000,0.000000
-7.39124999,-7.81650000,-0.82075005,124,128,114,3.000000,1.000000,216.905100,31216.000000,0.000000
-7.40149999,-7.82999997,-0.81775003,67,76,57,2.000000,1.000000,216.987299,13631.000000,0.000000
-7.40125001,-7.82625001,-0.81600004,94,103,82,3.000000,1.000000,216.987284,17759.000000,0.000000
-7.40125001,-7.82749998,-0.81325000,91,100,80,3.000000,1.000000,216.987284,22325.000000,0.000000
-7.40325001,-7.82450001,-0.81374996,80,89,65,3.000000,1.000000,217.007837,15116.000000,0.000000
-7.39850000,-7.81950002,-0.81750005,101,109,93,2.000000,1.000000,216.966745,28857.000000,0.000000
-7.39850000,-7.82074999,-0.81475001,101,111,96,3.000000,1.000000,216.966730,30998.000000,0.000000
-7.39574999,-7.82074999,-0.81524997,83,91,78,2.000000,1.000000,216.946192,34515.000000,0.000000
-7.40325001,-7.82399999,-0.81125002,81,89,63,3.000000,1.000000,217.007837,15750.000000,0.000000
-7.40300000,-7.82275002,-0.80899995,86,94,67,2.000000,1.000000,217.007822,13369.000000,0.000000
-7.40099999,-7.82450001,-0.81125002,71,81,58,3.000000,1.000000,216.987284,21976.000000,0.000000
-7.39850000,-7.82174998,-0.81174999,75,86,70,3.000000,1.000000,216.966730,31653.000000,0.000000
-7.40099999,-7.82450001,-0.80874997,70,80,57,3.000000,1.000000,216.987284,23155.000000,0.000000
-7.39850000,-7.81849997,-0.81000000,80,92,73,3.000000,1.000000,216.966730,31850.000000,0.000000
-7.39600000,-7.81950002,-0.81049996,86,97,81,2.000000,1.000000,216.946176,36371.000000,0.000000
-7.40099999,-7.82249998,-0.80674999,73,83,59,3.000000,1.000000,216.987268,15597.000000,0.000000
-7.39600000,-7.82300000,-0.80475002,65,77,56,3.000000,1.000000,216.946176,27961.000000,0.000000
-7.39850000,-7.82074999,-0.80699997,93,105,82,3.000000,1.000000,216.966730,28769.000000,0.000000
-7.39574999,-7.82074999,-0.80775004,71,82,65,2.000000,1.000000,216.946176,35585.000000,0.000000
-7.38874999,-7.81900000,-0.82049995,117,121,107,3.000000,1.000000,216.884546,25842.000000,0.000000
-7.38675001,-7.81800001,-0.81999999,103,106,92,3.000000,1.000000,216.863993,15160.000000,0.000000
-7.38675001,-7.81849997,-0.81724995,131,135,120,2.000000,1.000000,216.863993,17759.000000,0.000000
-7.39375001,-7.82125001,-0.80975001,65,74,57,2.000000,1.000000,216.925623,38905.000000,0.000000
-7.39375001,-7.82149999,-0.80724996,62,73,56,1.000000,1.000000,216.925623,37595.000000,0.000000
-7.39150000,-7.81950002,-0.80750006,66,75,58,2.000000,1.000000,216.905069,39430.000000,0.000000
-7.39399999,-7.81900000,-0.80500000,69,80,63,2.000000,1.000000,216.925623,29359.000000,0.000000
-7.39124999,-7.81749999,-0.80524998,64,72,55,2.000000,1.000000,216.905069,31522.000000,0.000000
-7.38874999,-7.81749999,-0.80574995,58,70,52,2.000000,1.000000,216.884516,37398.000000,0.000000
-7.37924999,-7.82125001,-0.81199997,77,83,62,2.000000,1.000000,216.802332,21757.000000,0.000000
-7.39625001,-7.82950001,-0.80074995,80,93,71,2.000000,1.000000,216.946161,12975.000000,0.000000
-7.39875001,-7.82574998,-0.80349999,88,100,76,3.000000,1.000000,216.966715,16252.000000,0.000000
-7.39425001,-7.82824998,-0.80049997,76,90,65,2.000000,1.000000,216.925623,17497.000000,0.000000
-7.39574999,-7.82324999,-0.79699998,63,74,58,2.000000,1.000000,216.946161,10136.000000,0.000000
-7.39375001,-7.81775003,-0.80024999,81,93,74,2.000000,1.000000,216.925623,21517.000000,0.000000
-7.39124999,-7.81875001,-0.80000000,69,79,61,2.000000,1.000000,216.905069,33641.000000,0.000000
-7.39375001,-7.82074999,-0.79724997,55,64,49,3.000000,1.000000,216.925608,19704.000000,0.000000
-7.38900000,-7.82950001,-0.79049998,72,80,65,2.000000,1.000000,216.884500,11730.000000,0.000000
-7.38675001,-7.82525002,-0.79049998,86,95,79,2.000000,1.000000,216.863962,21910.000000,0.000000
-7.38675001,-7.82324999,-0.79350000,79,90,70,2.000000,1.000000,216.863962,26148.000000,0.000000
-7.39124999,-7.81800001,-0.79500001,63,72,56,2.000000,1.000000,216.905054,18808.000000,0.000000
-7.38850001,-7.82074999,-0.79500001,60,69,51,2.000000,1.000000,216.884516,24335.000000,0.000000
-7.38400000,-7.82074999,-0.79424994,78,90,68,1.000000,1.000000,216.843409,36721.000000,0.000000
-7.38400000,-7.82200002,-0.79125004,105,114,96,2.000000,1.000000,216.843409,36022.000000,0.000000
-7.38150001,-7.82300000,-0.79199999,70,78,63,1.000000,1.000000,216.822855,38206.000000,0.000000
-7.37950000,-7.82450001,-0.79125004,102,111,94,1.000000,1.000000,216.802301,37791.000000,0.000000
-7.37950000,-7.82399999,-0.78874999,95,104,87,2.000000,1.000000,216.802301,36655.000000,0.000000
-7.38125000,-7.82099997,-0.78975003,87,95,82,2.000000,1.000000,216.822855,37376.000000,0.000000
-7.38374999,-7.81999998,-0.78924995,90,98,84,2.000000,1.000000,216.843409,33597.000000,0.000000
-7.36750001,-7.83375000,-0.80874997,102,125,78,2.000000,1.000000,216.699579,20927.000000,0.000000
-7.36574999,-7.83875000,-0.80750006,108,132,84,2.000000,1.000000,216.679026,14701.000000,0.000000
-7.36574999,-7.83824997,-0.80500000,112,134,83,2.000000,1.000000,216.679026,23527.000000,0.000000
-7.37474999,-7.83025002,-0.81349998,82,93,62,2.000000,1.000000,216.761240,17257.000000,0.000000
-7.37274999,-7.83050000,-0.81349998,83,97,62,2.000000,1.000000,216.740686,18437.000000,0.000000
-7.37724999,-7.82674997,-0.81374996,92,97,74,2.000000,1.000000,216.781778,18087.000000,0.000000
-7.37000001,-7.82674997,-0.81450003,97,117,75,3.000000,1.000000,216.720133,13543.000000,0.000000
-7.37450001,-7.82475000,-0.81224995,104,115,81,3.000000,1.000000,216.761225,27087.000000,0.000000
-7.37000001,-7.82724999,-0.81174999,94,115,71,2.000000,1.000000,216.720133,24400.000000,0.000000
-7.37250000,-7.82724999,-0.80925005,101,115,79,2.000000,1.000000,216.740686,35039.000000,0.000000
-7.37000001,-7.82800000,-0.80899995,106,124,80,2.000000,1.000000,216.720133,30910.000000,0.000000
-7.36750001,-7.83025002,-0.80724996,110,130,82,2.000000,1.000000,216.699579,27546.000000,0.000000
-7.36974999,-7.82674997,-0.80699997,110,126,83,2.000000,1.000000,216.720133,34646.000000,0.000000
-7.37700001,-7.82450001,-0.81174999,89,98,71,3.000000,1.000000,216.781778,26781.000000,0.000000
-7.37450001,-7.82450001,-0.80975001,86,97,64,3.000000,1.000000,216.761225,36437.000000,0.000000
-7.37674999,-7.82099997,-0.81000000,71,79,54,2.000000,1.000000,216.781778,33335.000000,0.000000
-7.37224999,-7.82424997,-0.81224995,100,116,78,2.000000,1.000000,216.740686,28704.000000,0.000000
-7.38700000,-7.82925003,-0.78724998,93,99,85,2.000000,1.000000,216.863947,22434.000000,0.000000
-7.38700000,-7.83200001,-0.78424995,95,101,88,2.000000,1.000000,216.863947,13937.000000,0.000000
-7.37950000,-7.82649999,-0.78325003,123,132,115,2.000000,1.000000,216.802301,23417.000000,0.000000
-7.38374999,-7.82099997,-0.78650003,80,87,74,2.000000,1.000000,216.843393,29621.000000,0.000000
-7.37950000,-7.82424997,-0.78625005,93,101,85,2.000000,1.000000,216.802301,32527.000000,0.000000
-7.38125000,-7.81975000,-0.78749996,88,96,83,2.000000,1.000000,216.822855,34689.000000,0.000000
-7.38125000,-7.82300000,-0.78450006,104,112,97,2.000000,1.000000,216.822840,28376.000000,0.000000
-7.39574999,-7.81599998,-0.81374996,93,103,89,2.000000,1.000000,216.946176,34340.000000,0.000000
-7.38874999,-7.81650000,-0.81849998,124,128,114,2.000000,1.000000,216.884546,28027.000000,0.000000
-7.39124999,-7.81674998,-0.79800003,57,66,48,2.000000,1.000000,216.905069,30910.000000,0.000000
-7.38249999,-7.78974997,-0.77274995,52,61,43,2.000000,1.000000,216.843378,28922.000000,0.000000
-7.38549999,-7.79900002,-0.77074998,48,59,43,3.000000,1.000000,216.863916,13958.000000,0.000000
-7.38525000,-7.79100000,-0.77000003,63,72,53,2.000000,1.000000,216.863916,17541.000000,0.000000
-7.38000000,-7.78874998,-0.77150004,74,84,60,2.000000,1.000000,216.822824,33269.000000,0.000000
-7.38249999,-7.78874998,-0.77050000,73,82,61,2.000000,1.000000,216.843363,30036.000000,0.000000
-7.37975001,-7.78675001,-0.76924997,93,111,67,2.000000,1.000000,216.822809,33291.000000,0.000000
-7.38499999,-7.78850000,-0.76800006,76,92,63,2.000000,1.000000,216.863916,18655.000000,0.000000
-7.37975001,-7.78525000,-0.76700001,99,121,75,2.000000,1.000000,216.822809,33422.000000,0.000000
-7.38225001,-7.78600000,-0.76599997,86,109,68,2.000000,1.000000,216.843363,28245.000000,0.000000
-7.38249999,-7.78825002,-0.76299994,95,116,74,2.000000,1.000000,216.843363,18371.000000,0.000000
-7.37975001,-7.78549998,-0.76449996,102,128,80,2.000000,1.000000,216.822809,28988.000000,0.000000
-7.37975001,-7.79199999,-0.76050001,101,129,80,3.000000,1.000000,216.822809,23483.000000,0.000000
-7.37975001,-7.79150002,-0.75799995,91,117,69,3.000000,1.000000,216.822794,14046.000000,0.000000
-7.37775001,-7.78900002,-0.77074998,85,95,70,2.000000,1.000000,216.802271,35891.000000,0.000000
-7.37525001,-7.78775000,-0.76899999,88,108,66,1.000000,1.000000,216.781717,39932.000000,0.000000
-7.37525001,-7.79075002,-0.76574998,98,121,75,1.000000,1.000000,216.781717,38316.000000,0.000000
-7.37274999,-7.79100000,-0.76624995,87,107,72,1.000000,1.000000,216.761164,39954.000000,0.000000
-7.37775001,-7.78750001,-0.76850002,93,115,68,2.000000,1.000000,216.802271,36044.000000,0.000000
-7.37775001,-7.78724997,-0.76599997,98,123,73,2.000000,1.000000,216.802256,35498.000000,0.000000
-7.36524999,-7.79425000,-0.75675004,74,90,63,1.000000,1.000000,216.699503,39430.000000,0.000000
-7.37525001,-7.78900002,-0.76350003,96,124,73,2.000000,1.000000,216.781702,37354.000000,0.000000
-7.37500000,-7.78724997,-0.76150005,95,124,71,2.000000,1.000000,216.781702,34755.000000,0.000000
-7.37250000,-7.78775000,-0.76449996,90,115,73,1.000000,1.000000,216.761164,37901.000000,0.000000
-7.37224999,-7.78624999,-0.76225000,88,116,69,2.000000,1.000000,216.761148,37398.000000,0.000000
-7.37775001,-7.78900002,-0.75799995,102,127,76,3.000000,1.000000,216.802256,23374.000000,0.000000
-7.37250000,-7.78675001,-0.75949996,83,111,63,2.000000,1.000000,216.761148,36066.000000,0.000000
-7.37224999,-7.78624999,-0.75700002,88,114,66,3.000000,1.000000,216.761148,32243.000000,0.000000
-7.37050000,-7.78799998,-0.76175004,75,97,61,2.000000,1.000000,216.740610,39670.000000,0.000000
-7.37050000,-7.78874998,-0.75900000,80,105,64,2.000000,1.000000,216.740595,36874.000000,0.000000
-7.36800000,-7.79000001,-0.75900000,78,98,67,1.000000,1.000000,216.720056,39583.000000,0.000000
-7.38225001,-7.78425001,-0.76899999,84,105,70,2.000000,1.000000,216.843363,29687.000000,0.000000
-7.37750000,-7.78350001,-0.76424997,102,130,78,2.000000,1.000000,216.802256,32505.000000,0.000000
-7.37750000,-7.78299998,-0.76175004,107,135,83,3.000000,1.000000,216.802256,28027.000000,0.000000
-7.37474999,-7.78425001,-0.75949996,89,116,65,3.000000,1.000000,216.781702,32527.000000,0.000000
-7.37474999,-7.78400003,-0.75700002,98,122,70,3.000000,1.000000,216.781702,27633.000000,0.000000
-7.31400001,-7.95174997,-0.70950001,93,99,87,2.000000,1.000000,216.185724,32680.000000,0.000000
-7.31850001,-7.95025002,-0.70925003,101,107,97,2.000000,1.000000,216.226816,34755.000000,0.000000
-7.31599999,-7.94875001,-0.71024995,93,99,88,2.000000,1.000000,216.206278,35301.000000,0.000000
-7.31150001,-7.94749998,-0.71050005,100,106,92,2.000000,1.000000,216.165171,30167.000000,0.000000
-7.32124999,-7.95350002,-0.70625000,85,93,77,2.000000,1.000000,216.247370,23352.000000,0.000000
-7.31150001,-7.95275002,-0.70699995,105,112,95,2.000000,1.000000,216.165171,24051.000000,0.000000
-7.31625000,-7.95499997,-0.70425003,91,97,85,2.000000,1.000000,216.206263,19354.000000,0.000000
-7.31175000,-7.95474999,-0.70400005,98,107,87,2.000000,1.000000,216.165171,13281.000000,0.000000
-7.31850001,-7.95050000,-0.70674997,86,93,80,2.000000,1.000000,216.226816,28420.000000,0.000000
-7.31599999,-7.94824999,-0.70800000,95,101,90,2.000000,1.000000,216.206263,30189.000000,0.000000
-7.31400001,-7.94924997,-0.70750003,96,102,90,2.000000,1.000000,216.185724,25930.000000,0.000000
-7.30899999,-7.95125001,-0.71075004,101,106,88,2.000000,1.000000,216.144617,32090.000000,0.000000
-7.30475000,-7.95275002,-0.71250003,124,129,106,2.000000,1.000000,216.103525,38119.000000,0.000000
-7.30475000,-7.95474999,-0.70950001,137,140,122,2.000000,1.000000,216.103525,34318.000000,0.000000
-7.30700001,-7.95125001,-0.71050005,112,117,95,2.000000,1.000000,216.124079,29272.000000,0.000000
-7.30225000,-7.95300000,-0.71275001,103,110,80,2.000000,1.000000,216.082972,38337.000000,0.000000
-7.30199999,-7.95200001,-0.71050005,116,118,94,2.000000,1.000000,216.082972,36153.000000,0.000000
-7.30700001,-7.94975000,-0.71324997,108,110,96,2.000000,1.000000,216.124079,35454.000000,0.000000
-7.30000001,-7.94649999,-0.71100002,107,108,82,2.000000,1.000000,216.062418,32964.000000,0.000000
-7.30950001,-7.95625000,-0.70499998,116,124,100,2.000000,1.000000,216.144617,15444.000000,0.000000
-7.30724999,-7.95324998,-0.70750003,123,129,103,2.000000,1.000000,216.124063,20556.000000,0.000000
-7.30899999,-7.95125001,-0.70849996,125,130,110,2.000000,1.000000,216.144617,25930.000000,0.000000
-7.30475000,-7.95224999,-0.70775002,134,138,110,2.000000,1.000000,216.103525,23658.000000,0.000000
-7.30199999,-7.95300000,-0.70775002,140,143,111,2.000000,1.000000,216.082972,28791.000000,0.000000
-7.30000001,-7.95149999,-0.70750003,130,131,98,3.000000,1.000000,216.062418,25493.000000,0.000000
-7.32249999,-7.94249999,-0.70849996,105,114,92,2.000000,1.000000,216.267923,18153.000000,0.000000
-7.21225003,-8.11349999,-0.70699995,130,149,68,1.000000,1.000000,215.158258,39080.000000,0.000000
-7.20774999,-8.11325001,-0.70400005,158,172,72,1.000000,1.000000,215.117151,38971.000000,0.000000
-7.21000001,-8.11075001,-0.70450001,146,160,71,1.000000,1.000000,215.137705,39757.000000,0.000000
-7.21175000,-8.10925000,-0.70575004,136,154,70,1.000000,1.000000,215.158258,39779.000000,0.000000
-7.20949999,-8.10600000,-0.70324998,151,166,70,1.000000,1.000000,215.137705,40216.000000,0.000000
-7.20724997,-8.10825001,-0.70275002,159,172,65,1.000000,1.000000,215.117151,39233.000000,0.000000
-7.20500001,-8.10875001,-0.70324998,169,179,63,1.000000,1.000000,215.096598,38621.000000,0.000000
-7.20425001,-8.10350000,-0.70199996,156,167,61,1.000000,1.000000,215.096598,38753.000000,0.000000
-7.20675001,-8.10250001,-0.70149999,160,176,67,1.000000,1.000000,215.117151,39386.000000,0.000000
-7.20250002,-8.10425000,-0.70149999,161,170,67,1.000000,1.000000,215.076044,38949.000000,0.000000
-7.20425001,-8.10300001,-0.69975000,159,170,77,1.000000,1.000000,215.096598,38753.000000,0.000000
-7.20224998,-8.10175001,-0.69975000,152,157,74,1.000000,1.000000,215.076044,38621.000000,0.000000
-7.21075001,-8.10025000,-0.70499998,134,153,64,1.000000,1.000000,215.158243,40238.000000,0.000000
-7.20850000,-8.09425001,-0.70324998,148,166,64,1.000000,1.000000,215.137690,39801.000000,0.000000
-7.21225003,-8.09100001,-0.70674997,127,148,71,2.000000,1.000000,215.178797,38316.000000,0.000000
-7.20949999,-8.08775001,-0.70524996,132,151,60,2.000000,1.000000,215.158243,40151.000000,0.000000
-7.20624998,-8.09699999,-0.70049994,159,175,64,1.000000,1.000000,215.117136,38337.000000,0.000000
-7.20199999,-8.09725001,-0.69824999,150,158,76,2.000000,1.000000,215.076044,35432.000000,0.000000
-7.19950000,-8.09874999,-0.70049994,144,144,61,2.000000,1.000000,215.055490,37005.000000,0.000000
-7.20350000,-8.09400000,-0.69925004,153,169,72,2.000000,1.000000,215.096582,36634.000000,0.000000
-7.20325002,-8.09325000,-0.69699996,142,155,69,3.000000,1.000000,215.096582,31413.000000,0.000000
-7.19899997,-8.09325000,-0.69925004,139,142,67,2.000000,1.000000,215.055490,35301.000000,0.000000
-7.20525000,-8.09049999,-0.69950002,153,169,62,2.000000,1.000000,215.117136,35214.000000,0.000000
-7.20500001,-8.08825000,-0.69775002,138,155,63,3.000000,1.000000,215.117136,27590.000000,0.000000
-7.20500001,-8.08799999,-0.69524997,123,143,64,2.000000,1.000000,215.117136,16427.000000,0.000000
-7.20075002,-8.08900001,-0.69775002,149,157,83,2.000000,1.000000,215.076029,30036.000000,0.000000
-7.19799999,-8.08549999,-0.69849997,163,166,96,1.000000,1.000000,215.055490,32592.000000,0.000000
-7.19624999,-8.08875000,-0.70075005,146,150,72,2.000000,1.000000,215.034937,35476.000000,0.000000
-7.20650002,-8.07750001,-0.70225006,144,162,64,3.000000,1.000000,215.137690,32461.000000,0.000000
-7.20624998,-8.07524999,-0.70474999,147,165,59,1.000000,1.000000,215.137690,38228.000000,0.000000
-7.20774999,-8.07024999,-0.70649999,138,158,63,2.000000,1.000000,215.158243,37660.000000,0.000000
-7.20699999,-8.08175000,-0.69900005,133,151,66,3.000000,1.000000,215.137690,23483.000000,0.000000
-7.20025000,-8.08150001,-0.69699996,147,159,89,3.000000,1.000000,215.076029,24510.000000,0.000000
-7.19724998,-8.07700001,-0.69775002,155,160,93,2.000000,1.000000,215.055475,31871.000000,0.000000
-7.20250002,-8.08450001,-0.69650000,129,145,69,2.000000,1.000000,215.096582,23352.000000,0.000000
-7.20100001,-8.07250001,-0.69674998,129,149,77,2.000000,1.000000,215.096582,12429.000000,0.000000
-7.19925001,-8.07399999,-0.69600003,143,158,91,1.000000,1.000000,215.076029,19616.000000,0.000000
-7.19700000,-8.07450001,-0.69600003,141,151,83,2.000000,1.000000,215.055475,28201.000000,0.000000
-7.19700000,-8.07399999,-0.69374996,138,149,81,3.000000,1.000000,215.055475,23264.000000,0.000000
-7.19899997,-8.07074999,-0.69450002,142,159,89,2.000000,1.000000,215.076029,10551.000000,0.000000
-7.18899998,-8.08299999,-0.69775002,189,188,122,1.000000,1.000000,214.973276,38381.000000,0.000000
-7.19149998,-8.08275001,-0.69724994,169,167,106,1.000000,1.000000,214.993830,37966.000000,0.000000
-7.19525001,-8.08000000,-0.69775002,168,169,106,1.000000,1.000000,215.034937,35432.000000,0.000000
-7.18700001,-8.08200001,-0.69775002,180,181,112,1.000000,1.000000,214.952738,38971.000000,0.000000
-7.18675003,-8.08000000,-0.69575005,166,164,103,1.000000,1.000000,214.952722,38643.000000,0.000000
-7.18824998,-8.07875000,-0.69625001,191,188,137,1.000000,1.000000,214.973276,37988.000000,0.000000
-7.18850002,-8.07925000,-0.69374996,183,179,133,1.000000,1.000000,214.973276,36546.000000,0.000000
-7.18625000,-8.07700001,-0.69400006,169,161,109,1.000000,1.000000,214.952722,36852.000000,0.000000
-7.18399999,-8.07875000,-0.69625001,149,151,69,1.000000,1.000000,214.932184,39561.000000,0.000000
-7.19299999,-8.07625001,-0.69824999,169,170,111,1.000000,1.000000,215.014383,36459.000000,0.000000
-7.19450000,-8.07399999,-0.69674998,161,165,103,2.000000,1.000000,215.034922,33750.000000,0.000000
-7.19275001,-8.07524999,-0.69600003,173,176,121,1.000000,1.000000,215.014383,35083.000000,0.000000
-7.19474998,-8.07500001,-0.69425004,153,158,96,3.000000,1.000000,215.034922,29687.000000,0.000000
-7.19275001,-8.07375001,-0.69400006,157,160,105,2.000000,1.000000,215.014368,30473.000000,0.000000
-7.19074997,-8.07675000,-0.69600003,185,184,136,1.000000,1.000000,214.993830,36524.000000,0.000000
-7.18375000,-8.07524999,-0.69450002,136,130,66,1.000000,1.000000,214.932169,37879.000000,0.000000
-7.18974999,-8.06850000,-0.69549995,154,154,103,2.000000,1.000000,214.993830,32920.000000,0.000000
