//X,Y,Z,R,G,B,NumberOfReturns,ReturnNumber,GpsTime,Intensity,Classification
491
-6.86349997,-8.14500000,-1.40724998,168,173,117,1.000000,1.000000,273.022913,45896.000000,1.000000
-6.89124999,-8.11125000,-1.42675000,196,194,110,2.000000,1.000000,144.737837,42859.000000,1.000000
-6.88600001,-8.09975000,-1.34199994,194,185,88,2.000000,1.000000,139.162661,42401.000000,1.000000
-6.88874999,-8.11099999,-1.33750003,173,162,108,1.000000,1.000000,229.824243,54656.000000,1.000000
-6.88850001,-8.10750001,-1.33925002,134,128,50,1.000000,1.000000,229.803705,55770.000000,1.000000
-6.88600001,-8.10600000,-1.34100001,104,98,21,1.000000,1.000000,229.803705,57736.000000,1.000000
-6.88799998,-8.10100000,-1.34050005,147,152,68,1.000000,1.000000,229.762598,56709.000000,1.000000
-6.88175002,-8.09299999,-1.34849995,92,84,31,1.000000,1.000000,229.742075,65535.000000,1.000000
-6.92775002,-8.04849999,-1.15200000,68,56,29,1.000000,1.000000,229.248621,45918.000000,1.000000
-6.92850003,-8.04899999,-1.14924996,60,52,29,1.000000,1.000000,229.248621,47054.000000,1.000000
-6.92850003,-8.04899999,-1.14650004,58,53,26,1.000000,1.000000,229.248621,46726.000000,1.000000
-6.92899999,-8.04950001,-1.14399999,66,61,37,1.000000,1.000000,229.248606,47469.000000,1.000000
-6.86200002,-8.14200001,-1.57074999,82,73,23,1.000000,1.000000,230.132776,45852.000000,1.000000
-6.86625001,-8.16725000,-1.55325001,103,110,88,1.000000,1.000000,211.871408,49762.000000,1.000000
-6.86399999,-8.16800000,-1.55325001,108,112,87,1.000000,1.000000,211.850855,50265.000000,1.000000
-6.86450002,-8.17050000,-1.54925000,98,103,80,1.000000,1.000000,211.850855,49588.000000,1.000000
-6.86824998,-8.16625001,-1.55349999,85,92,74,1.000000,1.000000,211.891962,48539.000000,1.000000
-6.86775002,-8.16399999,-1.55199998,96,104,81,1.000000,1.000000,211.891947,48299.000000,1.000000
-6.86600003,-8.16649999,-1.55075001,101,109,86,1.000000,1.000000,211.871408,49063.000000,1.000000
-6.86399999,-8.16875001,-1.54725003,99,105,83,1.000000,1.000000,211.850855,48386.000000,1.000000
-6.86475000,-8.17125001,-1.54374998,94,99,79,1.000000,1.000000,211.850840,48801.000000,1.000000
-6.86674997,-8.16950001,-1.54400002,97,105,84,1.000000,1.000000,211.871393,48539.000000,1.000000
-6.86600003,-8.16649999,-1.54825001,100,108,87,1.000000,1.000000,211.871393,48037.000000,1.000000
-6.86800000,-8.16449999,-1.54900002,108,116,93,1.000000,1.000000,211.891947,48015.000000,1.000000
-6.89275000,-8.14500000,-1.42675000,95,101,70,1.000000,1.000000,212.158930,44869.000000,1.000000
-6.89699999,-8.15424999,-1.41724997,128,141,108,1.000000,1.000000,212.179483,43799.000000,1.000000
-6.89400002,-8.15200000,-1.42074996,151,160,131,1.000000,1.000000,212.158930,45940.000000,1.000000
-6.89425001,-8.15374999,-1.41749995,139,150,123,1.000000,1.000000,212.158930,46508.000000,1.000000
-6.89500001,-8.14450001,-1.41899996,77,89,60,1.000000,1.000000,212.179468,43930.000000,1.000000
-6.89350000,-8.14975001,-1.41675001,69,80,56,1.000000,1.000000,212.158930,46486.000000,1.000000
-6.89275000,-8.13475000,-1.42049997,62,68,42,1.000000,1.000000,212.179468,44563.000000,1.000000
-6.89374998,-8.12975000,-1.41249996,108,123,88,1.000000,1.000000,212.200006,46180.000000,1.000000
-6.89400002,-8.13100000,-1.40924995,118,134,98,1.000000,1.000000,212.200006,47534.000000,1.000000
-6.89374998,-8.12949999,-1.40724998,110,121,87,1.000000,1.000000,212.200006,48364.000000,1.000000
-6.89299998,-8.13649999,-1.40150004,76,81,52,1.000000,1.000000,212.179453,48015.000000,1.000000
-6.88850001,-8.15949999,-1.39975005,110,116,102,1.000000,1.000000,212.097254,47097.000000,1.000000
-6.89100000,-8.15025001,-1.41749995,72,80,63,1.000000,1.000000,212.138376,46224.000000,1.000000
-6.88900003,-8.14950000,-1.41475003,66,72,62,1.000000,1.000000,212.117823,48408.000000,1.000000
-6.89000002,-8.14549999,-1.41675001,66,72,58,1.000000,1.000000,212.138376,47469.000000,1.000000
-6.88850001,-8.14700001,-1.41325002,55,61,49,1.000000,1.000000,212.117823,49238.000000,1.000000
-6.89000002,-8.14375000,-1.41475003,59,64,50,1.000000,1.000000,212.138361,48867.000000,1.000000
-6.89224997,-8.14274999,-1.41724997,55,62,41,1.000000,1.000000,212.158915,47512.000000,1.000000
-6.89150003,-8.14050000,-1.41574996,63,66,48,1.000000,1.000000,212.158915,48321.000000,1.000000
-6.89224997,-8.13100000,-1.41975003,65,69,44,1.000000,1.000000,212.179468,45918.000000,1.000000
-6.89250001,-8.13199999,-1.41650002,80,84,59,1.000000,1.000000,212.179468,46224.000000,1.000000
-6.89199999,-8.13074999,-1.41450005,100,111,83,1.000000,1.000000,212.179453,46944.000000,1.000000
-6.88649997,-8.14924999,-1.40975004,83,90,76,1.000000,1.000000,212.097269,49063.000000,1.000000
-6.88825002,-8.14575001,-1.41125005,69,74,62,1.000000,1.000000,212.117807,49173.000000,1.000000
-6.88974998,-8.14474999,-1.41199999,64,68,54,1.000000,1.000000,212.138361,48692.000000,1.000000
-6.89025000,-8.14625000,-1.40850001,85,89,74,1.000000,1.000000,212.138361,49369.000000,1.000000
-6.88850001,-8.14724999,-1.40774994,102,106,92,1.000000,1.000000,212.117807,48626.000000,1.000000
-6.88974998,-8.14349999,-1.40700000,83,91,74,1.000000,1.000000,212.138361,48845.000000,1.000000
-6.88775000,-8.15624999,-1.40399998,102,109,94,1.000000,1.000000,212.097254,48495.000000,1.000000
-6.88874999,-8.14825000,-1.40475004,85,92,76,1.000000,1.000000,212.117807,48779.000000,1.000000
-6.88850001,-8.14775001,-1.40249997,86,95,78,1.000000,1.000000,212.117807,48386.000000,1.000000
-6.88775000,-8.14474999,-1.40099996,108,120,101,1.000000,1.000000,212.117792,48168.000000,1.000000
-6.89199999,-8.13074999,-1.41175001,97,111,82,1.000000,1.000000,212.179453,47294.000000,1.000000
-6.88974998,-8.14300000,-1.40475004,69,78,59,1.000000,1.000000,212.138346,48474.000000,1.000000
-6.88900003,-8.14000001,-1.40325003,84,96,75,1.000000,1.000000,212.138346,48779.000000,1.000000
-6.89124999,-8.13925000,-1.40300005,90,102,76,1.000000,1.000000,212.158899,48277.000000,1.000000
-6.88925001,-8.14149999,-1.40000003,106,118,95,1.000000,1.000000,212.138346,48474.000000,1.000000
-6.89150003,-8.14024999,-1.39975005,98,107,81,1.000000,1.000000,212.158899,47534.000000,1.000000
-6.92450002,-8.13725000,-1.37200003,50,53,35,2.000000,1.000000,212.467112,47075.000000,1.000000
-6.92674998,-8.13675000,-1.36700004,52,54,41,2.000000,1.000000,212.487650,48364.000000,1.000000
-6.92550001,-8.12900000,-1.37274998,49,51,38,1.000000,1.000000,212.487665,46682.000000,1.000000
-6.92424998,-8.13625001,-1.36974996,54,57,40,1.000000,1.000000,212.467112,49893.000000,1.000000
-6.92200002,-8.13675000,-1.36750000,59,63,46,1.000000,1.000000,212.446558,49347.000000,1.000000
-6.92174998,-8.13600000,-1.37025004,52,56,36,2.000000,1.000000,212.446558,48342.000000,1.000000
-6.91999999,-8.13600000,-1.37050002,48,56,33,2.000000,1.000000,212.426004,46442.000000,1.000000
-6.92400000,-8.13500001,-1.36750000,58,62,47,1.000000,1.000000,212.467112,50199.000000,1.000000
-6.92375001,-8.13425001,-1.36525004,63,69,53,2.000000,1.000000,212.467096,46529.000000,1.000000
-6.92150000,-8.13425001,-1.36599999,52,59,41,2.000000,1.000000,212.446558,48823.000000,1.000000
-6.89299998,-8.12650000,-1.41899996,91,94,63,1.000000,1.000000,212.200006,45983.000000,1.000000
-6.89474997,-8.12325000,-1.41975003,108,113,74,2.000000,1.000000,212.220560,43690.000000,1.000000
-6.89325002,-8.12725001,-1.41625004,98,109,76,1.000000,1.000000,212.200006,46551.000000,1.000000
-6.89500001,-8.12350001,-1.41699999,118,130,90,1.000000,1.000000,212.220560,44323.000000,1.000000
-6.90500000,-8.11149999,-1.29424994,85,96,82,1.000000,1.000000,212.343698,48255.000000,1.000000
-6.90650001,-8.10625001,-1.29600006,89,101,90,1.000000,1.000000,212.364237,45743.000000,1.000000
-6.90825001,-8.10524999,-1.29650002,102,114,96,2.000000,1.000000,212.384790,42291.000000,1.000000
-6.90825001,-8.10575001,-1.29350000,121,134,115,1.000000,1.000000,212.384790,45372.000000,1.000000
-6.90650001,-8.10600000,-1.29350000,112,124,109,1.000000,1.000000,212.364237,46660.000000,1.000000
-6.90500000,-8.11075001,-1.29199999,100,112,98,1.000000,1.000000,212.343683,47884.000000,1.000000
-6.90725002,-8.10950001,-1.28950005,122,135,118,1.000000,1.000000,212.364237,46704.000000,1.000000
-6.90849999,-8.10625001,-1.29074996,122,136,113,1.000000,1.000000,212.384790,44825.000000,1.000000
-6.90699998,-8.10875001,-1.28724998,135,148,130,1.000000,1.000000,212.364237,46202.000000,1.000000
-6.90875003,-8.10825001,-1.28749996,125,139,114,1.000000,1.000000,212.384775,45634.000000,1.000000
-6.90725002,-8.11000000,-1.28424995,139,154,130,1.000000,1.000000,212.364222,46355.000000,1.000000
-6.90875003,-8.10774999,-1.28500002,121,135,108,1.000000,1.000000,212.384775,46049.000000,1.000000
-6.90849999,-8.10675000,-1.28274994,128,142,115,1.000000,1.000000,212.384775,46311.000000,1.000000
-6.90875003,-8.10875001,-1.27949994,138,153,128,1.000000,1.000000,212.384775,46376.000000,1.000000
-6.89199999,-8.12499999,-1.32549994,79,88,76,1.000000,1.000000,212.199884,50025.000000,1.000000
-6.88974998,-8.12374999,-1.32575005,91,100,89,1.000000,1.000000,212.179346,49129.000000,1.000000
-6.88724998,-8.12374999,-1.32575005,136,145,132,1.000000,1.000000,212.158792,48801.000000,1.000000
-6.88724998,-8.12325000,-1.32849997,112,123,109,1.000000,1.000000,212.158792,48386.000000,1.000000
-6.88724998,-8.12424999,-1.32300001,143,151,140,1.000000,1.000000,212.158792,48845.000000,1.000000
-6.88949999,-8.12299999,-1.32349997,97,105,94,1.000000,1.000000,212.179331,49173.000000,1.000000
-6.89100000,-8.12124999,-1.32425004,73,81,70,1.000000,1.000000,212.199884,48867.000000,1.000000
-6.88874999,-8.12025001,-1.32199996,118,126,115,1.000000,1.000000,212.179331,49719.000000,1.000000
-6.89150003,-8.12374999,-1.32075005,106,114,103,1.000000,1.000000,212.199884,49915.000000,1.000000
-6.88949999,-8.12325000,-1.31800001,133,141,130,1.000000,1.000000,212.179331,50068.000000,1.000000
-6.92700002,-8.08825000,-1.20999997,104,108,84,1.000000,1.000000,212.590174,45656.000000,1.000000
-6.92700002,-8.08775001,-1.21250003,99,98,73,1.000000,1.000000,212.590174,43799.000000,1.000000
-6.92400000,-8.08625000,-1.21400004,105,105,82,1.000000,1.000000,212.569620,44629.000000,1.000000
-6.92249999,-8.08799999,-1.21024995,82,85,74,1.000000,1.000000,212.549066,46901.000000,1.000000
-6.92475000,-8.08975001,-1.20775002,87,94,77,1.000000,1.000000,212.569620,48452.000000,1.000000
-6.92275003,-8.08850001,-1.20750003,72,78,67,1.000000,1.000000,212.549066,48517.000000,1.000000
-6.92475000,-8.08924999,-1.20524996,86,93,77,1.000000,1.000000,212.569620,48779.000000,1.000000
-6.92424998,-8.08725001,-1.21125000,105,108,88,1.000000,1.000000,212.569620,46442.000000,1.000000
-6.92975000,-8.07024999,-1.13375001,115,131,118,1.000000,1.000000,212.651712,46617.000000,1.000000
-6.93200001,-8.06875001,-1.13424998,127,141,126,1.000000,1.000000,212.672266,42663.000000,1.000000
-6.93200001,-8.06800001,-1.13700002,129,144,129,1.000000,1.000000,212.672266,43668.000000,1.000000
-6.92599997,-8.07500001,-1.13025003,121,135,122,1.000000,1.000000,212.610605,48823.000000,1.000000
-6.92800000,-8.07350000,-1.13099998,120,134,121,1.000000,1.000000,212.631159,48255.000000,1.000000
-6.93025002,-8.07300000,-1.12525003,117,131,116,1.000000,1.000000,212.651697,46486.000000,1.000000
-6.92775002,-8.07274999,-1.12875002,115,129,114,1.000000,1.000000,212.631159,47971.000000,1.000000
-6.92599997,-8.07375001,-1.12799995,120,134,119,1.000000,1.000000,212.610605,47709.000000,1.000000
-6.92775002,-8.07350000,-1.12599998,116,130,115,1.000000,1.000000,212.631159,47775.000000,1.000000
-6.93200001,-8.06824999,-1.13175004,116,129,114,1.000000,1.000000,212.672266,45262.000000,1.000000
-6.92975000,-8.07100000,-1.13099998,110,127,111,1.000000,1.000000,212.651712,47906.000000,1.000000
-6.93125001,-8.06550001,-1.13025003,116,130,115,1.000000,1.000000,212.672251,46508.000000,1.000000
-6.92999998,-8.07199999,-1.12825006,113,130,114,1.000000,1.000000,212.651712,47163.000000,1.000000
-6.92625001,-8.07575001,-1.12500005,121,135,120,1.000000,1.000000,212.610605,48299.000000,1.000000
-6.92749998,-8.07250001,-1.12375002,126,140,125,1.000000,1.000000,212.631144,47643.000000,1.000000
-6.92599997,-8.07324999,-1.12324994,131,146,130,1.000000,1.000000,212.610605,48168.000000,1.000000
-6.93425003,-8.07350000,-1.07049995,72,76,70,1.000000,1.000000,212.692728,47818.000000,1.000000
-6.93625000,-8.06875001,-1.07625001,72,78,68,1.000000,1.000000,212.713282,47556.000000,1.000000
-6.93350002,-8.06875001,-1.07699996,91,96,88,1.000000,1.000000,212.692728,48452.000000,1.000000
-6.93675003,-8.07100000,-1.07324999,74,80,69,1.000000,1.000000,212.713282,46682.000000,1.000000
-6.93399999,-8.07074999,-1.07374995,96,101,94,1.000000,1.000000,212.692728,48277.000000,1.000000
-6.93149999,-8.06850000,-1.07649999,78,83,77,1.000000,1.000000,212.672190,48758.000000,1.000000
-6.93200001,-8.07175001,-1.07300001,64,69,63,1.000000,1.000000,212.672174,48976.000000,1.000000
-6.88500002,-8.10050001,-1.33900004,76,67,62,1.000000,1.000000,203.029478,52122.000000,1.000000
-6.88450000,-8.10375001,-1.33600002,86,81,86,1.000000,1.000000,203.050032,51947.000000,1.000000
-6.88500002,-8.11325001,-1.33275002,184,200,214,1.000000,1.000000,203.111677,54110.000000,1.000000
-6.88850001,-8.11200001,-1.33050006,184,200,214,1.000000,1.000000,203.111669,52624.000000,1.000000
-6.88600001,-8.11674999,-1.32874995,185,199,215,1.000000,1.000000,203.132223,52012.000000,1.000000
-6.88850001,-8.11924999,-1.33199995,191,205,214,1.000000,1.000000,203.152777,52165.000000,1.000000
-6.89075002,-8.12475001,-1.32725006,143,150,142,1.000000,1.000000,203.193869,45088.000000,1.000000
-6.89025000,-8.12124999,-1.32549994,187,198,202,1.000000,1.000000,203.173315,48452.000000,1.000000
-6.88825002,-8.11924999,-1.32199996,188,203,214,1.000000,1.000000,203.152761,46595.000000,1.000000
-6.88974998,-8.12150001,-1.32224994,188,199,203,1.000000,1.000000,203.173315,45765.000000,1.000000
-6.92649999,-8.09200000,-1.20900004,140,140,144,1.000000,1.000000,203.090986,46158.000000,1.000000
-6.92775002,-8.04325001,-1.15399998,46,48,21,1.000000,1.000000,202.803221,45481.000000,1.000000
-6.88799998,-8.13175001,-1.40874999,172,173,112,1.000000,1.000000,273.064005,47163.000000,1.000000
-6.88425002,-8.12000000,-1.42175000,185,186,129,1.000000,1.000000,273.064005,49282.000000,1.000000
-6.85625002,-8.16050001,-1.61624997,171,172,91,1.000000,1.000000,144.655680,48386.000000,1.000000
-6.85349998,-8.15700000,-1.64525002,169,171,85,1.000000,1.000000,144.655687,49762.000000,1.000000
-6.87350002,-8.11075001,-1.36774998,161,163,61,2.000000,2.000000,144.717272,65535.000000,1.000000
-6.88074997,-8.09824999,-1.36750000,175,175,86,2.000000,2.000000,144.737822,65535.000000,1.000000
-6.90975002,-8.08549999,-1.27749997,116,128,62,2.000000,1.000000,144.778902,45175.000000,1.000000
-6.91274998,-8.06824999,-1.11599999,117,112,46,1.000000,1.000000,144.799414,45590.000000,1.000000
-6.83925000,-8.17550000,-1.71149998,183,186,103,1.000000,1.000000,138.936771,45874.000000,1.000000
-6.85775003,-8.16124999,-1.61750000,213,192,102,2.000000,1.000000,138.998381,43821.000000,1.000000
-6.84300003,-8.15749999,-1.63025003,193,181,73,1.000000,1.000000,138.977838,50789.000000,1.000000
-6.83575001,-8.15975001,-1.62950002,174,165,55,1.000000,1.000000,138.957287,49369.000000,1.000000
-6.84150002,-8.15549999,-1.61449998,202,193,87,1.000000,1.000000,138.977831,49653.000000,1.000000
-6.85725001,-8.13649999,-1.45025002,126,122,59,1.000000,1.000000,139.039410,50374.000000,1.000000
-6.87074998,-8.12874999,-1.41874998,156,149,75,1.000000,1.000000,139.080496,44126.000000,1.000000
-6.87499997,-8.10950001,-1.38124996,187,165,59,1.000000,1.000000,139.121578,61471.000000,1.000000
-6.87399998,-8.10825001,-1.37324994,224,209,109,1.000000,1.000000,139.121574,62891.000000,1.000000
-6.87525001,-8.10950001,-1.36599999,228,215,116,1.000000,1.000000,139.121571,63896.000000,1.000000
-6.87350002,-8.10725000,-1.35774999,212,189,96,1.000000,1.000000,139.121569,65535.000000,1.000000
-6.87974998,-8.10399999,-1.37200003,210,202,101,2.000000,1.000000,139.142124,52624.000000,1.000000
-7.02250001,-7.97175001,-1.17399996,155,150,128,2.000000,1.000000,139.655790,43362.000000,1.000000
-6.91225001,-8.05725001,-1.11700004,80,80,51,1.000000,1.000000,139.285862,48998.000000,1.000000
-6.97325000,-8.01750000,-0.86850005,205,181,111,1.000000,1.000000,139.470703,47359.000000,1.000000
-6.97875002,-8.00824999,-0.68549996,127,129,66,1.000000,1.000000,139.491171,44126.000000,1.000000
-7.01350001,-7.87174999,-0.46950000,165,154,73,1.000000,1.000000,139.799324,45568.000000,1.000000
-7.01374999,-7.87200003,-0.46199995,169,155,80,1.000000,1.000000,139.799320,42139.000000,1.000000
-6.90024999,-7.92949997,-0.46699994,97,117,52,1.000000,1.000000,139.470524,44716.000000,1.000000
-6.96100000,-8.16300001,-1.64700001,137,107,33,2.000000,1.000000,229.804010,42532.000000,1.000000
-6.96150002,-8.16324999,-1.64425003,185,155,100,1.000000,1.000000,229.804010,46508.000000,1.000000
-6.88049999,-8.10274999,-1.41074996,191,183,80,1.000000,1.000000,229.803797,44629.000000,1.000000
-6.88175002,-8.09749999,-1.41000002,136,141,57,2.000000,1.000000,229.762690,48474.000000,1.000000
-6.88149998,-8.10350000,-1.40825003,149,160,75,1.000000,1.000000,229.803781,42510.000000,1.000000
-6.88974998,-8.10925000,-1.40049999,121,102,41,1.000000,1.000000,229.803766,65535.000000,1.000000
-6.88325003,-8.08525001,-1.37075000,83,74,33,2.000000,1.000000,229.680445,48321.000000,1.000000
-6.88175002,-8.09350001,-1.36599999,101,91,37,1.000000,1.000000,229.742090,65535.000000,1.000000
-6.88074997,-8.10750001,-1.31524997,167,165,149,1.000000,1.000000,229.844782,45350.000000,1.000000
-6.88250002,-8.10625001,-1.31450003,144,128,89,1.000000,1.000000,229.824228,46726.000000,1.000000
-6.88299999,-8.10324999,-1.31399994,107,84,22,1.000000,1.000000,229.803675,48233.000000,1.000000
-6.88350001,-8.10025000,-1.31374996,123,114,58,1.000000,1.000000,229.783121,48495.000000,1.000000
-6.88250002,-8.09949999,-1.31625002,123,124,43,1.000000,1.000000,229.783121,48561.000000,1.000000
-6.88299999,-8.10649999,-1.30899995,177,171,150,1.000000,1.000000,229.824213,47556.000000,1.000000
-6.88125000,-8.10800000,-1.31250005,196,197,188,1.000000,1.000000,229.844767,44957.000000,1.000000
-6.88525000,-8.11050000,-1.30874997,211,218,213,1.000000,1.000000,229.844767,47010.000000,1.000000
-6.88250002,-8.11200001,-1.30750006,208,218,219,1.000000,1.000000,229.865320,46923.000000,1.000000
-6.88549999,-8.10125001,-1.30899995,162,149,56,1.000000,1.000000,229.783121,49020.000000,1.000000
-6.88399997,-8.10050001,-1.31125002,137,129,46,1.000000,1.000000,229.783121,48823.000000,1.000000
-6.88425002,-8.09800001,-1.31024998,151,127,22,1.000000,1.000000,229.762567,50177.000000,1.000000
-6.88450000,-8.10425000,-1.30874997,182,165,115,1.000000,1.000000,229.803675,47294.000000,1.000000
-6.88399997,-8.10375001,-1.30574995,196,190,150,1.000000,1.000000,229.803659,47753.000000,1.000000
-6.88450000,-8.09800001,-1.30750006,148,127,25,1.000000,1.000000,229.762567,49282.000000,1.000000
-6.88275001,-8.11224999,-1.30475002,198,207,194,1.000000,1.000000,229.865305,45459.000000,1.000000
-6.88925001,-8.09749999,-1.27774995,115,114,25,1.000000,1.000000,229.741983,47054.000000,1.000000
-6.88825002,-8.08750000,-1.28150003,124,114,18,1.000000,1.000000,229.680338,48801.000000,1.000000
-6.88874999,-8.09350001,-1.28049999,135,123,43,1.000000,1.000000,229.721430,47294.000000,1.000000
-6.88799998,-8.09299999,-1.27724998,161,153,86,1.000000,1.000000,229.721430,47884.000000,1.000000
-6.88974998,-8.09174999,-1.28000002,169,172,85,1.000000,1.000000,229.700876,47207.000000,1.000000
-7.02800003,-7.96125000,-1.17925005,173,154,97,1.000000,1.000000,228.221125,48758.000000,1.000000
-7.02500001,-7.96850001,-1.17749994,104,81,34,1.000000,1.000000,228.282785,47687.000000,1.000000
-7.02675000,-7.96299999,-1.17975002,172,141,87,1.000000,1.000000,228.241678,48124.000000,1.000000
-7.02524999,-7.97400003,-1.17549997,96,85,41,1.000000,1.000000,228.323877,45721.000000,1.000000
-7.02549997,-7.97774999,-1.17300003,120,110,61,1.000000,1.000000,228.344416,45852.000000,1.000000
-7.02874997,-7.97075002,-1.17625003,83,59,17,1.000000,1.000000,228.282770,46092.000000,1.000000
-7.02900002,-7.96175002,-1.17675000,129,112,53,1.000000,1.000000,228.221125,47163.000000,1.000000
-7.02575001,-7.97124999,-1.17625003,103,91,47,1.000000,1.000000,228.303324,47775.000000,1.000000
-7.02699998,-7.96624999,-1.17699998,130,100,48,1.000000,1.000000,228.262232,47359.000000,1.000000
-7.02524999,-7.96200000,-1.17625003,164,138,84,1.000000,1.000000,228.241678,47949.000000,1.000000
-6.90124998,-8.07649999,-1.18574994,175,153,92,1.000000,1.000000,229.556910,49326.000000,1.000000
-6.90199998,-8.07375001,-1.18650001,183,169,80,1.000000,1.000000,229.536371,49216.000000,1.000000
-6.90075001,-8.07050001,-1.18549996,184,180,86,1.000000,1.000000,229.515818,49478.000000,1.000000
-6.90250000,-8.06525000,-1.18650001,132,128,52,1.000000,1.000000,229.474710,49238.000000,1.000000
-6.89975003,-8.07899999,-1.18275004,145,102,57,1.000000,1.000000,229.577463,44935.000000,1.000000
-6.89925000,-8.06624999,-1.18450003,131,134,34,1.000000,1.000000,229.495264,50593.000000,1.000000
-6.91300002,-8.05075001,-1.12350004,96,100,83,1.000000,1.000000,229.330790,49129.000000,1.000000
-6.91400001,-8.05125000,-1.11850005,42,47,24,1.000000,1.000000,229.330790,48190.000000,1.000000
-6.91300002,-8.05050000,-1.11525004,65,68,44,1.000000,1.000000,229.330774,49478.000000,1.000000
-6.91225001,-8.06850000,-1.11175006,51,53,43,1.000000,1.000000,229.454065,44541.000000,1.000000
-6.91499999,-8.06699999,-1.10375004,98,94,86,1.000000,1.000000,229.433512,46136.000000,1.000000
-6.91575000,-8.06725000,-1.10124999,63,59,48,1.000000,1.000000,229.433512,46944.000000,1.000000
-6.91749999,-8.06850000,-1.09900003,57,53,39,1.000000,1.000000,229.433496,46726.000000,1.000000
-6.91325000,-8.06249999,-1.10575002,86,84,72,1.000000,1.000000,229.412958,47512.000000,1.000000
-6.91050002,-8.05450000,-1.12124997,117,122,100,1.000000,1.000000,229.371881,48801.000000,1.000000
-6.91150001,-8.05224999,-1.12449997,125,128,104,1.000000,1.000000,229.351343,48692.000000,1.000000
-6.91199997,-8.05250000,-1.12175005,85,90,71,1.000000,1.000000,229.351343,48539.000000,1.000000
-6.90975002,-8.05725001,-1.11400002,56,57,48,1.000000,1.000000,229.392435,47818.000000,1.000000
-6.90900001,-8.05349999,-1.11799996,120,128,107,1.000000,1.000000,229.371881,47622.000000,1.000000
-6.90699998,-8.05549999,-1.11850005,117,125,104,1.000000,1.000000,229.392435,46901.000000,1.000000
-6.91250000,-8.05275001,-1.11924999,63,68,46,1.000000,1.000000,229.351328,48146.000000,1.000000
-6.90975002,-8.05400001,-1.11550003,97,101,84,1.000000,1.000000,229.371881,47228.000000,1.000000
-6.91125003,-8.05500000,-1.11350005,63,63,48,1.000000,1.000000,229.371881,47884.000000,1.000000
-6.91225001,-8.05275001,-1.11649995,54,58,36,1.000000,1.000000,229.351328,48779.000000,1.000000
-6.91225001,-8.05250000,-1.11350005,64,64,42,1.000000,1.000000,229.351328,48910.000000,1.000000
-6.91024998,-8.06925001,-1.11124998,80,87,72,1.000000,1.000000,229.474619,41439.000000,1.000000
-6.91099998,-8.07000001,-1.10900002,65,73,57,1.000000,1.000000,229.474619,42510.000000,1.000000
-6.91099998,-8.06725000,-1.10850006,52,56,42,1.000000,1.000000,229.454065,44913.000000,1.000000
-6.90875003,-8.06249999,-1.11225002,58,58,53,1.000000,1.000000,229.433527,47425.000000,1.000000
-6.91174999,-8.06449999,-1.11075001,64,63,56,1.000000,1.000000,229.433527,47338.000000,1.000000
-6.91199997,-8.06124999,-1.11075001,56,53,46,1.000000,1.000000,229.412973,48102.000000,1.000000
-6.90975002,-8.05999999,-1.11274999,45,44,39,1.000000,1.000000,229.412973,47949.000000,1.000000
-6.91125003,-8.05825000,-1.11200004,53,50,43,1.000000,1.000000,229.392420,48233.000000,1.000000
-6.91174999,-8.06449999,-1.10799997,79,76,67,1.000000,1.000000,229.433512,48146.000000,1.000000
-6.91199997,-8.06150000,-1.10799997,69,65,58,1.000000,1.000000,229.412973,48102.000000,1.000000
-6.91199997,-8.06475001,-1.10525005,103,100,93,1.000000,1.000000,229.433512,47643.000000,1.000000
-6.91125003,-8.04925000,-1.11200004,94,94,70,1.000000,1.000000,229.330774,49260.000000,1.000000
-6.91325000,-8.04774999,-1.11774998,80,83,56,1.000000,1.000000,229.310236,48692.000000,1.000000
-6.91424999,-8.04825001,-1.11550003,119,121,89,1.000000,1.000000,229.310236,48146.000000,1.000000
-6.91475001,-8.04849999,-1.11274999,141,142,111,1.000000,1.000000,229.310221,48474.000000,1.000000
-6.92324999,-8.07250001,-1.09299999,104,109,85,1.000000,1.000000,229.433496,44257.000000,1.000000
-6.93600002,-8.04375001,-1.05074995,105,116,78,1.000000,1.000000,229.186838,48845.000000,1.000000
-6.93600002,-8.04074999,-1.05349999,95,96,73,1.000000,1.000000,229.166300,46071.000000,1.000000
-6.84225002,-8.15775000,-1.71549999,95,57,27,1.000000,1.000000,230.317896,44498.000000,1.000000
-6.84625003,-8.14700001,-1.63400000,65,69,39,1.000000,1.000000,230.235605,47927.000000,1.000000
-6.83575001,-8.16100000,-1.63400000,47,53,42,1.000000,1.000000,230.379450,48146.000000,1.000000
-6.83874998,-8.16925000,-1.63050001,86,91,90,1.000000,1.000000,230.420542,46136.000000,1.000000
-6.83925000,-8.17300000,-1.62575000,94,105,100,1.000000,1.000000,230.441095,43799.000000,1.000000
-6.83774999,-8.17200001,-1.62800001,109,118,116,1.000000,1.000000,230.441095,46464.000000,1.000000
-6.83900002,-8.16950001,-1.62774997,125,131,132,1.000000,1.000000,230.420542,45634.000000,1.000000
-6.84075001,-8.17075001,-1.62550002,105,115,114,1.000000,1.000000,230.420542,43143.000000,1.000000
-6.83524999,-8.17000001,-1.62975001,76,83,80,1.000000,1.000000,230.441095,47250.000000,1.000000
-6.83624998,-8.17325001,-1.62550002,93,105,94,1.000000,1.000000,230.461634,45393.000000,1.000000
-6.83449999,-8.16600000,-1.63125002,66,73,67,1.000000,1.000000,230.420557,48211.000000,1.000000
-6.83524999,-8.16300001,-1.63150000,69,71,68,1.000000,1.000000,230.400003,48255.000000,1.000000
-6.83575001,-8.16100000,-1.63099998,53,55,48,1.000000,1.000000,230.379450,47840.000000,1.000000
-6.83549997,-8.16074999,-1.62800001,78,79,75,1.000000,1.000000,230.379450,47097.000000,1.000000
-6.83799997,-8.15350001,-1.63324999,53,48,17,1.000000,1.000000,230.317804,48474.000000,1.000000
-6.83549997,-8.15749999,-1.63324999,85,91,66,1.000000,1.000000,230.358911,49260.000000,1.000000
-6.83975002,-8.15125000,-1.63324999,47,40,12,1.000000,1.000000,230.297251,48626.000000,1.000000
-6.84124997,-8.14900001,-1.63349997,47,44,13,1.000000,1.000000,230.276697,48124.000000,1.000000
-6.84325001,-8.14775001,-1.63324999,56,56,25,1.000000,1.000000,230.256159,47906.000000,1.000000
-6.83774999,-8.15575000,-1.63125002,95,93,57,1.000000,1.000000,230.338358,49173.000000,1.000000
-6.83925000,-8.15450000,-1.63099998,95,91,53,1.000000,1.000000,230.317804,48648.000000,1.000000
-6.83549997,-8.15749999,-1.63025003,58,61,41,1.000000,1.000000,230.358896,48386.000000,1.000000
-6.84274998,-8.15000000,-1.63150000,49,47,21,1.000000,1.000000,230.276697,47796.000000,1.000000
-6.83900002,-8.15075000,-1.62975001,94,91,58,1.000000,1.000000,230.297251,48059.000000,1.000000
-6.84199998,-8.14674999,-1.62950002,67,66,38,1.000000,1.000000,230.256159,48648.000000,1.000000
-6.84475002,-8.14549999,-1.62999999,60,64,31,1.000000,1.000000,230.235605,48211.000000,1.000000
-6.83975002,-8.15125000,-1.62700003,59,58,27,1.000000,1.000000,230.297251,48102.000000,1.000000
-6.84050003,-8.14825000,-1.62725001,45,45,19,1.000000,1.000000,230.276697,49762.000000,1.000000
-6.84300003,-8.14750000,-1.62700003,64,68,40,1.000000,1.000000,230.256144,48583.000000,1.000000
-6.84524998,-8.14575001,-1.62725001,50,55,21,1.000000,1.000000,230.235605,48801.000000,1.000000
-6.83849999,-8.16899999,-1.61825001,46,52,48,1.000000,1.000000,230.420542,46966.000000,1.000000
-6.83874998,-8.16574999,-1.61825001,46,47,45,1.000000,1.000000,230.399988,48190.000000,1.000000
-6.83949998,-8.16375001,-1.61800002,47,47,45,1.000000,1.000000,230.379435,48255.000000,1.000000
-6.83774999,-8.16825001,-1.61475002,48,55,49,1.000000,1.000000,230.420526,47250.000000,1.000000
-6.83925000,-8.16600000,-1.61550003,48,50,46,1.000000,1.000000,230.399988,48277.000000,1.000000
-6.84099999,-8.16124999,-1.61500000,53,52,47,1.000000,1.000000,230.358881,47097.000000,1.000000
-6.83825001,-8.16275000,-1.61425000,42,43,38,1.000000,1.000000,230.379435,47469.000000,1.000000
-6.83699998,-8.16750001,-1.61150002,41,45,40,1.000000,1.000000,230.420526,46901.000000,1.000000
-6.84000000,-8.15725001,-1.62050002,71,72,55,1.000000,1.000000,230.338343,47927.000000,1.000000
-6.83900002,-8.15650000,-1.61699998,56,54,39,1.000000,1.000000,230.338327,48299.000000,1.000000
-6.84075001,-8.15525000,-1.61949997,51,54,31,1.000000,1.000000,230.317789,48474.000000,1.000000
-6.84150002,-8.15225001,-1.61875003,56,59,30,1.000000,1.000000,230.297235,48626.000000,1.000000
-6.84325001,-8.14750000,-1.62099998,57,63,31,1.000000,1.000000,230.256144,48124.000000,1.000000
-6.84050003,-8.14825000,-1.61800002,77,81,48,1.000000,1.000000,230.276682,49063.000000,1.000000
-6.84225002,-8.14674999,-1.61750000,52,55,22,1.000000,1.000000,230.256144,49063.000000,1.000000
-6.84449998,-8.14500000,-1.61774998,41,44,13,1.000000,1.000000,230.235590,48146.000000,1.000000
-6.83874998,-8.15949999,-1.61674999,40,37,32,1.000000,1.000000,230.358881,48124.000000,1.000000
-6.83849999,-8.15624999,-1.61349999,55,53,43,1.000000,1.000000,230.338327,48452.000000,1.000000
-6.83900002,-8.15400000,-1.61575001,62,62,41,1.000000,1.000000,230.317789,48539.000000,1.000000
-6.84075001,-8.15525000,-1.61349999,104,100,88,1.000000,1.000000,230.317774,48845.000000,1.000000
-6.83925000,-8.15075000,-1.61449998,87,87,60,1.000000,1.000000,230.297235,48932.000000,1.000000
-6.84325001,-8.14425000,-1.61400002,49,47,15,1.000000,1.000000,230.235590,48801.000000,1.000000
-6.84000000,-8.14775001,-1.61475002,82,83,49,1.000000,1.000000,230.276682,48801.000000,1.000000
-6.84150002,-8.14625000,-1.61400002,63,62,28,1.000000,1.000000,230.256128,48430.000000,1.000000
-6.85424999,-8.13675000,-1.61475002,50,51,10,1.000000,1.000000,230.132837,47447.000000,1.000000
-6.84500000,-8.14200001,-1.63300001,43,51,17,1.000000,1.000000,230.215052,48015.000000,1.000000
-6.84550002,-8.14250000,-1.63025003,49,60,24,1.000000,1.000000,230.215052,47927.000000,1.000000
-6.84099999,-8.13675000,-1.62975001,41,50,15,1.000000,1.000000,230.194498,47993.000000,1.000000
-6.83699998,-8.13375001,-1.63074999,49,55,22,1.000000,1.000000,230.194513,46879.000000,1.000000
-6.84550002,-8.14224999,-1.61825001,45,53,14,1.000000,1.000000,230.215036,47906.000000,1.000000
-6.84300003,-8.13825001,-1.61875003,59,63,15,1.000000,1.000000,230.194498,46770.000000,1.000000
-6.84325001,-8.12900000,-1.61774998,136,127,53,2.000000,1.000000,230.132837,44869.000000,1.000000
-6.84075001,-8.13649999,-1.61449998,53,61,14,1.000000,1.000000,230.194483,48037.000000,1.000000
-6.85674998,-8.14825000,-1.45125001,119,119,118,1.000000,1.000000,230.214838,47709.000000,1.000000
-6.85924998,-8.14750000,-1.44275003,67,69,65,1.000000,1.000000,230.194284,48583.000000,1.000000
-6.85950002,-8.15000000,-1.44075000,59,61,58,2.000000,1.000000,230.214823,45612.000000,1.000000
-6.86074999,-8.14474999,-1.43725001,51,53,44,1.000000,1.000000,230.173716,47228.000000,1.000000
-6.85875002,-8.13800000,-1.45025002,180,157,121,1.000000,1.000000,230.132639,47884.000000,1.000000
-6.85924998,-8.13175001,-1.44975000,221,190,123,1.000000,1.000000,230.091532,49850.000000,1.000000
-6.85674998,-8.12999999,-1.45149999,173,137,66,1.000000,1.000000,230.091547,49326.000000,1.000000
-6.86600003,-8.12450000,-1.44999998,191,178,100,1.000000,1.000000,230.009333,48998.000000,1.000000
-6.85975000,-8.12575000,-1.45074999,194,167,86,1.000000,1.000000,230.050440,49020.000000,1.000000
-6.85800001,-8.12800001,-1.45074999,203,172,112,1.000000,1.000000,230.070993,49107.000000,1.000000
-6.86475000,-8.12600001,-1.44725000,159,153,57,1.000000,1.000000,230.029886,48059.000000,1.000000
-6.86375001,-8.12299999,-1.44599997,127,128,32,1.000000,1.000000,230.009333,48539.000000,1.000000
-6.86375001,-8.12550001,-1.44375002,163,151,54,1.000000,1.000000,230.029886,47359.000000,1.000000
-6.86999998,-8.12075000,-1.44275003,148,142,63,1.000000,1.000000,229.968225,45175.000000,1.000000
-6.86749998,-8.12225001,-1.44150000,95,82,7,1.000000,1.000000,229.988779,47316.000000,1.000000
-6.86525002,-8.12400000,-1.44375002,122,119,26,1.000000,1.000000,230.009333,48321.000000,1.000000
-6.86249998,-8.12450000,-1.44050001,187,173,70,1.000000,1.000000,230.029871,47753.000000,1.000000
-6.86725000,-8.12200000,-1.43825000,67,52,0,1.000000,1.000000,229.988779,47469.000000,1.000000
-6.86399999,-8.12325000,-1.44024997,133,126,20,1.000000,1.000000,230.009333,48364.000000,1.000000
-6.87175003,-8.11924999,-1.44024997,97,92,10,1.000000,1.000000,229.947672,42816.000000,1.000000
-6.86999998,-8.12049999,-1.43975001,97,88,11,1.000000,1.000000,229.968225,44520.000000,1.000000
-6.86074999,-8.12675001,-1.44525003,133,110,12,1.000000,1.000000,230.050440,48452.000000,1.000000
-6.86424998,-8.14400001,-1.42175000,97,102,96,1.000000,1.000000,230.153147,45852.000000,1.000000
-6.86275002,-8.14050000,-1.42000001,110,117,107,1.000000,1.000000,230.132608,46071.000000,1.000000
-6.87200001,-8.11599999,-1.42224997,140,117,29,1.000000,1.000000,229.927103,43515.000000,1.000000
-6.87375000,-8.11349999,-1.42049997,156,129,45,1.000000,1.000000,229.906549,41767.000000,1.000000
-6.86974999,-8.11424999,-1.42399996,121,103,28,1.000000,1.000000,229.927103,41483.000000,1.000000
-6.87275002,-8.11250000,-1.41399997,157,152,59,1.000000,1.000000,229.906549,43449.000000,1.000000
-6.86824998,-8.12525000,-1.37250000,190,186,149,1.000000,1.000000,230.009241,65535.000000,1.000000
-6.86775002,-8.13074999,-1.36725002,176,174,131,2.000000,1.000000,230.050333,55442.000000,1.000000
-6.86974999,-8.12874999,-1.36824995,165,165,130,1.000000,1.000000,230.029795,61428.000000,1.000000
-6.86649999,-8.12949999,-1.36375003,192,191,148,2.000000,1.000000,230.050333,54634.000000,1.000000
-6.86625001,-8.12949999,-1.36099999,181,179,138,2.000000,1.000000,230.050333,52821.000000,1.000000
-6.87074998,-8.12949999,-1.36025005,151,153,103,2.000000,1.000000,230.029779,56862.000000,1.000000
-6.87200001,-8.12999999,-1.35474997,169,166,132,2.000000,1.000000,230.029779,53891.000000,1.000000
-6.87050000,-8.12675001,-1.36774998,181,181,145,1.000000,1.000000,230.009241,64311.000000,1.000000
-6.87200001,-8.12775000,-1.36274999,179,180,135,2.000000,1.000000,230.009226,61428.000000,1.000000
-6.86924997,-8.12575000,-1.36425000,182,183,143,1.000000,1.000000,230.009241,63284.000000,1.000000
-6.86800000,-8.12725001,-1.36149996,141,143,96,2.000000,1.000000,230.029779,59178.000000,1.000000
-6.86625001,-8.12600001,-1.36375003,150,150,110,1.000000,1.000000,230.029779,60423.000000,1.000000
-6.87100002,-8.12699999,-1.35925000,168,169,122,1.000000,1.000000,230.009226,59483.000000,1.000000
-6.86899999,-8.12800001,-1.35624998,147,147,104,2.000000,1.000000,230.029779,55180.000000,1.000000
-6.87824997,-8.09450000,-1.37350004,148,127,44,1.000000,1.000000,229.762644,65535.000000,1.000000
-6.92375001,-8.03425001,-0.92475002,144,148,114,2.000000,1.000000,229.186686,42051.000000,1.000000
-6.92349997,-8.03400000,-0.92175000,105,108,74,1.000000,1.000000,229.186686,45306.000000,1.000000
-6.92499998,-8.03499999,-0.91975003,108,109,73,1.000000,1.000000,229.186686,47032.000000,1.000000
-6.92150000,-8.03600000,-0.91950005,56,56,16,1.000000,1.000000,229.207239,45066.000000,1.000000
-6.92174998,-8.03624999,-0.91675001,73,68,35,1.000000,1.000000,229.207224,46420.000000,1.000000
-6.80974999,-7.99525001,-0.57649999,148,138,68,1.000000,1.000000,229.473963,45415.000000,1.000000
-6.80574998,-7.99549999,-0.57499998,69,63,14,1.000000,1.000000,229.494516,45830.000000,1.000000
-6.80625001,-7.99250000,-0.57324999,118,111,55,1.000000,1.000000,229.473963,46420.000000,1.000000
-6.80925003,-7.99200000,-0.57600003,160,148,74,1.000000,1.000000,229.453409,44957.000000,1.000000
-6.80950001,-7.98900001,-0.57575005,151,144,70,1.000000,1.000000,229.432856,44301.000000,1.000000
-6.80775002,-7.99099999,-0.57324999,144,138,65,1.000000,1.000000,229.453409,46114.000000,1.000000
-6.80850002,-7.98849999,-0.57300001,147,143,64,1.000000,1.000000,229.432856,44170.000000,1.000000
-6.80600003,-7.99224999,-0.57075005,64,60,21,1.000000,1.000000,229.473947,43842.000000,1.000000
-6.83624998,-8.18850001,-1.71425002,122,130,55,1.000000,1.000000,211.542810,48736.000000,1.000000
-6.84024999,-8.18775000,-1.71149998,132,139,102,1.000000,1.000000,211.583902,49719.000000,1.000000
-6.83849999,-8.18775000,-1.71125000,121,129,83,1.000000,1.000000,211.563364,48190.000000,1.000000
-6.83350000,-8.18975001,-1.71200001,120,126,56,1.000000,1.000000,211.522257,48801.000000,1.000000
-6.83575001,-8.18749999,-1.71200001,119,125,62,1.000000,1.000000,211.542810,48190.000000,1.000000
-6.83350000,-8.18825000,-1.70974999,109,113,53,1.000000,1.000000,211.522257,49042.000000,1.000000
-6.84024999,-8.18825000,-1.70850002,116,128,91,1.000000,1.000000,211.583902,48255.000000,1.000000
-6.84024999,-8.18775000,-1.70600002,111,124,96,1.000000,1.000000,211.583902,49631.000000,1.000000
-6.83825001,-8.18725001,-1.70875000,112,123,82,1.000000,1.000000,211.563349,47250.000000,1.000000
-6.83600000,-8.18850001,-1.70850002,108,116,65,1.000000,1.000000,211.542810,49151.000000,1.000000
-6.83799997,-8.18600001,-1.70649999,103,115,85,1.000000,1.000000,211.563349,47665.000000,1.000000
-6.84000000,-8.18700000,-1.70350003,112,124,101,1.000000,1.000000,211.583902,49129.000000,1.000000
-6.83825001,-8.18700000,-1.70324998,104,116,92,1.000000,1.000000,211.563349,48124.000000,1.000000
-6.83325002,-8.18725001,-1.70749997,99,105,63,1.000000,1.000000,211.522257,48430.000000,1.000000
-6.83549997,-8.18624999,-1.70724999,107,115,77,1.000000,1.000000,211.542795,47993.000000,1.000000
-6.83549997,-8.18674999,-1.70399999,119,129,104,1.000000,1.000000,211.542795,46835.000000,1.000000
-6.95624998,-8.19324999,-1.64649998,46,50,40,1.000000,1.000000,212.631906,47316.000000,1.000000
-6.95525000,-8.19875001,-1.64074998,50,53,44,2.000000,1.000000,212.611353,45350.000000,1.000000
-6.95699999,-8.18374999,-1.64749997,39,46,37,1.000000,1.000000,212.652445,45961.000000,1.000000
-6.95675001,-8.18350001,-1.64499997,38,44,34,1.000000,1.000000,212.652445,46355.000000,1.000000
-6.95975003,-8.18624999,-1.64324998,39,45,35,1.000000,1.000000,212.672998,44083.000000,1.000000
-6.95675001,-8.18350001,-1.64249998,44,48,36,1.000000,1.000000,212.652445,47075.000000,1.000000
-6.95500001,-8.18700000,-1.64700001,48,52,43,1.000000,1.000000,212.631891,46158.000000,1.000000
-6.95449999,-8.18424999,-1.64550000,47,53,41,1.000000,1.000000,212.631891,45699.000000,1.000000
-6.95325002,-8.18725001,-1.64375000,51,57,43,2.000000,1.000000,212.611338,44782.000000,1.000000
-6.95425001,-8.18250000,-1.64375000,51,54,41,1.000000,1.000000,212.631891,46311.000000,1.000000
-6.84975001,-8.18174999,-1.64775001,99,102,91,1.000000,1.000000,211.686579,49566.000000,1.000000
-6.85125002,-8.18025001,-1.64550000,99,102,91,1.000000,1.000000,211.707132,49981.000000,1.000000
-6.84924999,-8.17950000,-1.64600002,103,105,94,1.000000,1.000000,211.686579,48801.000000,1.000000
-6.84725002,-8.18150001,-1.64600002,108,109,100,1.000000,1.000000,211.666025,49042.000000,1.000000
-6.84924999,-8.17950000,-1.64324998,110,113,104,1.000000,1.000000,211.686579,49741.000000,1.000000
-6.85099998,-8.17875000,-1.64350002,103,109,99,1.000000,1.000000,211.707117,50221.000000,1.000000
-6.85150001,-8.18075000,-1.63975000,107,110,101,1.000000,1.000000,211.707117,50330.000000,1.000000
-6.84949997,-8.18075000,-1.63999998,107,111,99,1.000000,1.000000,211.686563,50855.000000,1.000000
-6.85125002,-8.18000000,-1.63725000,99,101,89,1.000000,1.000000,211.707117,49544.000000,1.000000
-6.84725002,-8.18150001,-1.64025002,105,109,95,1.000000,1.000000,211.666025,50374.000000,1.000000
-6.85000000,-8.18299999,-1.63050001,97,100,80,1.000000,1.000000,211.686563,49719.000000,1.000000
-6.85349998,-8.17974999,-1.63099998,111,114,100,1.000000,1.000000,211.727655,50549.000000,1.000000
-6.84949997,-8.18075000,-1.63700002,98,101,85,1.000000,1.000000,211.686563,49282.000000,1.000000
-6.85000000,-8.18250000,-1.63349997,98,100,83,1.000000,1.000000,211.686563,49085.000000,1.000000
-6.85075000,-8.17849999,-1.63525002,100,102,88,1.000000,1.000000,211.707117,49872.000000,1.000000
-6.85125002,-8.18075000,-1.63125002,109,111,96,1.000000,1.000000,211.707102,49609.000000,1.000000
-6.84924999,-8.17974999,-1.62924998,104,107,87,1.000000,1.000000,211.686548,49784.000000,1.000000
-6.84699997,-8.18125000,-1.63200002,87,89,66,1.000000,1.000000,211.666010,48889.000000,1.000000
-6.85050002,-8.17775001,-1.62999999,106,110,92,1.000000,1.000000,211.707102,50593.000000,1.000000
-6.85325000,-8.17775001,-1.62900000,99,103,89,1.000000,1.000000,211.727655,48670.000000,1.000000
-6.85300002,-8.17700001,-1.62674999,97,104,88,1.000000,1.000000,211.727655,49653.000000,1.000000
-6.85024998,-8.17674999,-1.62774997,107,111,95,1.000000,1.000000,211.707102,49959.000000,1.000000
-6.83699998,-8.17849999,-1.62999999,112,123,56,2.000000,1.000000,211.583795,46508.000000,1.000000
-6.83900002,-8.17625000,-1.63074999,110,113,63,1.000000,1.000000,211.604349,47600.000000,1.000000
-6.83699998,-8.17849999,-1.62749999,111,121,53,2.000000,1.000000,211.583795,47403.000000,1.000000
-6.83874998,-8.17575001,-1.62800001,98,100,49,1.000000,1.000000,211.604349,47665.000000,1.000000
-6.83650002,-8.17674999,-1.62550002,118,127,59,1.000000,1.000000,211.583795,47556.000000,1.000000
-6.83849999,-8.17474999,-1.62599998,96,97,48,1.000000,1.000000,211.604349,48037.000000,1.000000
-6.83425000,-8.17425000,-1.63225000,107,121,42,2.000000,1.000000,211.563257,42947.000000,1.000000
-6.83374998,-8.17250000,-1.63025003,115,128,50,2.000000,1.000000,211.563242,45590.000000,1.000000
-6.84099999,-8.17450001,-1.62875002,77,76,39,1.000000,1.000000,211.624903,48583.000000,1.000000
-6.84075001,-8.17375000,-1.62650000,76,73,38,1.000000,1.000000,211.624887,48692.000000,1.000000
-6.84024999,-8.17149999,-1.62475001,82,78,48,1.000000,1.000000,211.624887,49697.000000,1.000000
-6.83400002,-8.17399999,-1.62674999,123,134,56,2.000000,1.000000,211.563242,45765.000000,1.000000
-6.85700002,-8.17650001,-1.61599999,88,90,80,1.000000,1.000000,211.768732,49806.000000,1.000000
-6.85274997,-8.17650001,-1.61599999,86,88,79,1.000000,1.000000,211.727640,49588.000000,1.000000
-6.84774998,-8.17525001,-1.61225002,103,105,99,1.000000,1.000000,211.686533,49020.000000,1.000000
-6.83874998,-8.17550000,-1.61725002,94,96,67,1.000000,1.000000,211.604334,43799.000000,1.000000
-6.85599998,-8.17175000,-1.61550003,96,97,89,1.000000,1.000000,211.768732,48976.000000,1.000000
-6.85475001,-8.17474999,-1.61624997,88,91,82,1.000000,1.000000,211.748194,49063.000000,1.000000
-6.85475001,-8.17474999,-1.61349999,98,101,94,1.000000,1.000000,211.748178,48932.000000,1.000000
-6.84949997,-8.17450001,-1.61524998,106,106,101,1.000000,1.000000,211.707087,48779.000000,1.000000
-6.85150001,-8.17224999,-1.61550003,104,105,100,1.000000,1.000000,211.727640,49129.000000,1.000000
-6.84924999,-8.17274999,-1.61325001,110,112,108,1.000000,1.000000,211.707087,49216.000000,1.000000
-6.85200003,-8.17399999,-1.61175000,106,108,103,1.000000,1.000000,211.727625,49959.000000,1.000000
-6.84050003,-8.17300000,-1.61849999,88,88,69,1.000000,1.000000,211.624887,47884.000000,1.000000
-6.83725003,-8.17024999,-1.61150002,108,109,59,2.000000,1.000000,211.604319,44039.000000,1.000000
-6.85599998,-8.17349999,-1.58175003,123,132,113,1.000000,1.000000,211.768686,50571.000000,1.000000
-6.85775003,-8.17050000,-1.58275002,102,112,95,1.000000,1.000000,211.789240,49063.000000,1.000000
-6.85550001,-8.17149999,-1.57999998,82,94,76,1.000000,1.000000,211.768686,49369.000000,1.000000
-6.85375002,-8.17149999,-1.57950001,98,109,91,1.000000,1.000000,211.748133,48168.000000,1.000000
-6.85775003,-8.17000001,-1.58025002,82,93,76,1.000000,1.000000,211.789240,48430.000000,1.000000
-6.85749999,-8.16950001,-1.57775002,97,100,90,1.000000,1.000000,211.789240,49194.000000,1.000000
-6.85575000,-8.17300000,-1.57674997,82,90,74,1.000000,1.000000,211.768686,49085.000000,1.000000
-6.85375002,-8.17175000,-1.57674997,104,114,99,1.000000,1.000000,211.748133,48495.000000,1.000000
-6.86999998,-8.16199999,-1.55475002,82,94,75,1.000000,1.000000,211.912500,46158.000000,1.000000
-6.86999998,-8.16225000,-1.55175000,92,104,81,1.000000,1.000000,211.912500,46617.000000,1.000000
-6.87025002,-8.16375001,-1.54849999,100,110,86,1.000000,1.000000,211.912500,46376.000000,1.000000
-6.87025002,-8.16324999,-1.54600000,91,104,78,1.000000,1.000000,211.912500,47775.000000,1.000000
-6.87100002,-8.15525000,-1.55199998,84,98,63,1.000000,1.000000,211.933054,42007.000000,1.000000
-6.87525001,-8.15624999,-1.52125000,103,121,97,2.000000,1.000000,211.974115,44039.000000,1.000000
-6.87499997,-8.15525000,-1.52425002,95,113,89,1.000000,1.000000,211.974115,43384.000000,1.000000
-6.87499997,-8.15600001,-1.51875000,113,129,103,1.000000,1.000000,211.974100,46595.000000,1.000000
-6.86249998,-8.15499999,-1.44650000,109,111,106,1.000000,1.000000,211.871256,49675.000000,1.000000
-6.86249998,-8.15475001,-1.44899999,123,126,121,1.000000,1.000000,211.871271,49063.000000,1.000000
-6.86924997,-8.15325000,-1.43800002,126,130,130,1.000000,1.000000,211.932901,47207.000000,1.000000
-6.86450002,-8.15499999,-1.44125002,93,95,89,1.000000,1.000000,211.891809,48626.000000,1.000000
-6.86200002,-8.15275001,-1.44475000,108,110,103,1.000000,1.000000,211.871256,49020.000000,1.000000
-6.86249998,-8.15499999,-1.44099998,125,126,118,1.000000,1.000000,211.871256,48474.000000,1.000000
-6.86625001,-8.15125000,-1.43924999,115,118,117,1.000000,1.000000,211.912348,48583.000000,1.000000
-6.86399999,-8.15299999,-1.43924999,103,105,100,1.000000,1.000000,211.891794,48102.000000,1.000000
-6.86200002,-8.15249999,-1.43950003,117,120,109,1.000000,1.000000,211.871256,48452.000000,1.000000
-6.86349997,-8.15100001,-1.43749999,113,115,110,1.000000,1.000000,211.891794,48910.000000,1.000000
-6.86174998,-8.15174999,-1.43725001,118,119,112,1.000000,1.000000,211.871241,48583.000000,1.000000
-6.86649999,-8.15299999,-1.43575000,116,120,118,1.000000,1.000000,211.912348,48539.000000,1.000000
-6.85650000,-8.15025001,-1.44975000,77,82,56,1.000000,1.000000,211.830164,47862.000000,1.000000
-6.85424999,-8.14924999,-1.44999998,65,70,37,2.000000,1.000000,211.809610,43755.000000,1.000000
-6.85924998,-8.15174999,-1.44300001,107,106,89,1.000000,1.000000,211.850702,47753.000000,1.000000
-6.85875002,-8.14950000,-1.44125002,92,92,75,1.000000,1.000000,211.850702,46813.000000,1.000000
-6.85875002,-8.15025001,-1.43825000,79,79,66,1.000000,1.000000,211.850702,47687.000000,1.000000
-6.88549999,-8.17799999,-1.39700001,90,102,81,1.000000,1.000000,212.035608,47512.000000,1.000000
-6.88675001,-8.17274999,-1.39924996,88,99,82,1.000000,1.000000,212.056162,49435.000000,1.000000
-6.88600001,-8.16975000,-1.39825004,89,98,81,1.000000,1.000000,212.056162,48364.000000,1.000000
-6.88750002,-8.16574999,-1.39774995,93,99,85,1.000000,1.000000,212.076700,47643.000000,1.000000
-6.86525002,-8.14849999,-1.42175000,132,143,126,1.000000,1.000000,211.912332,47359.000000,1.000000
-6.86200002,-8.14500000,-1.42175000,113,124,101,1.000000,1.000000,211.891779,47469.000000,1.000000
-6.86850003,-8.15174999,-1.41500001,144,158,134,1.000000,1.000000,211.932871,48910.000000,1.000000
-6.87025002,-8.15075000,-1.41825002,134,147,129,1.000000,1.000000,211.953424,48910.000000,1.000000
-6.86824998,-8.14975001,-1.41825002,151,165,144,1.000000,1.000000,211.932871,48714.000000,1.000000
-6.86525002,-8.14875000,-1.41924994,132,145,123,1.000000,1.000000,211.912317,46398.000000,1.000000
-6.86225000,-8.14575001,-1.41874998,134,144,122,1.000000,1.000000,211.891764,45874.000000,1.000000
-6.86499998,-8.14750000,-1.41699999,121,133,109,1.000000,1.000000,211.912317,46224.000000,1.000000
-6.86800000,-8.14875000,-1.41350000,116,130,105,1.000000,1.000000,211.932871,48190.000000,1.000000
-6.86499998,-8.14700001,-1.41450005,122,134,109,1.000000,1.000000,211.912317,46682.000000,1.000000
